-0.016,-0.018833,-0.022,-0.025,-0.027667,-0.029667,-0.031,-0.030333,-0.029333,-0.029,-0.028333,-0.027667,-0.027,-0.027833,-0.027333,-0.026,-0.026833,-0.028,-0.03,-0.031167,-0.032,-0.032,-0.031333,-0.030667,-0.029,-0.028333,-0.028667,-0.028,-0.028333,-0.027,-0.026,-0.026167,-0.026333,-0.027,-0.027667,-0.028333,-0.029,-0.029,-0.028667,-0.028,-0.028,-0.027333,-0.026,-0.0235,-0.022667,-0.022,-0.023333,-0.024333,-0.025,-0.026333,-0.027667,-0.029,-0.029833,-0.029667,-0.029,-0.027833,-0.027667,-0.027,-0.027833,-0.028333,-0.028,-0.027667,-0.026667,-0.026,-0.0245,-0.023,-0.02,-0.016833,-0.013333,-0.01,-0.0083333,-0.007,-0.005,-0.0025,0.001,0.005,0.0093333,0.014,0.021333,0.0295,0.038667,0.049,0.058833,0.068333,0.077,0.084333,0.091,0.098,0.10383,0.10933,0.114,0.11767,0.121,0.125,0.12967,0.13433,0.139,0.14233,0.146,0.149,0.153,0.15667,0.16,0.16283,0.16567,0.169,0.17383,0.17833,0.183,0.18833,0.194,0.2,0.20667,0.213,0.22,0.22533,0.23133,0.237,0.24233,0.24867,0.254,0.25933,0.264,0.268,0.2725,0.277,0.281,0.28617,0.292,0.298,0.30333,0.30833,0.313,0.31733,0.32033,0.322,0.32267,0.32233,0.321,0.31917,0.31667,0.314,0.3105,0.30767,0.303,0.29967,0.29533,0.289,0.28433,0.27867,0.271,0.26833,0.265,0.261,0.2525,0.243,0.233,0.22817,0.22833,0.228,0.228,0.22467,0.217,0.208,0.208,0.202,0.18933,0.181,0.177,0.17583,0.16567,0.153,0.1515,0.14933,0.148,0.1405,0.138,0.131,0.12533,0.11933,0.107,0.1005,0.091,0.087,0.0845,0.081667,0.076,0.069667,0.064,0.071333,0.0825,0.092333,0.087,0.069667,0.057333,0.0528,0.044333,0.037,0.025,0.015833,0.01,0.008,0.0063333,0.005,0.004,0.0031667,0.0033333,0.004,0.004,0.0036667,0.006,0.01,0.013,0.023,0.036333,0.045667,0.051,0.051,0.05,0.048,0.048,0.048333,0.0458,0.043,0.037,0.033667,0.03,0.027333,0.022,0.013,0.005,0.001,-0.0015,-0.004,-0.005,-0.0063333,-0.0076667,-0.0094,-0.011,-0.013,-0.015,-0.017,-0.018,-0.0192,-0.020333,-0.021,-0.022,-0.0225,-0.023667,-0.025,-0.026167,-0.027,-0.029,-0.0305,-0.031333,-0.033,-0.0345,-0.036,-0.037333,-0.038,-0.039,-0.039,-0.039667,-0.040333,-0.041,-0.0435,-0.046333,-0.049,-0.052167,-0.055,-0.057667,-0.059667,-0.061,-0.061667,-0.0625,-0.064,-0.066,-0.068,-0.069333,-0.07,-0.070333,-0.071,-0.071,-0.072333,-0.072667,-0.074,-0.074333,-0.075,-0.076,-0.077333,-0.078,-0.079,-0.079667,-0.08,-0.08,-0.08,-0.08,-0.0792,-0.079,-0.079,-0.079,-0.0795,-0.081,-0.081,-0.081667,-0.082333,-0.083,-0.082833,-0.083667,-0.085,-0.086333,-0.086,-0.086,-0.086,-0.086,-0.087333,-0.0885,-0.089667,-0.091,-0.091667,-0.092,-0.092,-0.092,-0.091,-0.0902,-0.09,-0.09,-0.089333,-0.088667,-0.088,-0.087,-0.085333,-0.082,-0.078,-0.074833,-0.072,-0.071333,-0.07,-0.066333,-0.062,-0.058833,-0.051,-0.045,-0.0405,-0.037333,-0.035,-0.033333,-0.033,-0.033,-0.032333,-0.031,-0.029,-0.026833,-0.025333,-0.0252,-0.024667,-0.024,-0.020667,-0.0175,-0.014333,-0.009,-0.0026667,0.003,0.007,0.007,0.006,0.004,0.0005,-0.0033333,-0.008,-0.013833,-0.019,-0.022,-0.023833,-0.025,-0.024333,-0.023,-0.021
-0.017333,-0.019333,-0.0215,-0.024,-0.026,-0.027833,-0.029,-0.029,-0.028667,-0.028833,-0.0285,-0.028667,-0.029,-0.029,-0.028667,-0.027833,-0.027833,-0.0275,-0.028667,-0.03,-0.031667,-0.0325,-0.032167,-0.032,-0.030333,-0.0296,-0.0295,-0.0295,-0.029,-0.027833,-0.027333,-0.0278,-0.028,-0.028667,-0.029333,-0.0295,-0.0295,-0.0295,-0.029333,-0.029,-0.028333,-0.0275,-0.025333,-0.0225,-0.021,-0.021333,-0.0226,-0.0235,-0.024167,-0.025167,-0.0265,-0.027667,-0.0285,-0.028333,-0.027833,-0.027167,-0.0265,-0.026333,-0.027,-0.027667,-0.0275,-0.027167,-0.027,-0.025667,-0.024,-0.0225,-0.02,-0.0178,-0.0145,-0.011333,-0.0095,-0.0075,-0.005,-0.0024,0.00083333,0.0043333,0.008,0.012667,0.0175,0.0256,0.034667,0.045,0.055,0.064833,0.074,0.081667,0.089333,0.096,0.1025,0.10833,0.1135,0.117,0.121,0.125,0.1292,0.134,0.1385,0.14217,0.1455,0.14833,0.152,0.15533,0.15833,0.16133,0.1645,0.1685,0.173,0.17783,0.183,0.188,0.194,0.2,0.20633,0.213,0.219,0.225,0.23083,0.23633,0.2415,0.24767,0.25283,0.2575,0.262,0.266,0.27,0.275,0.28,0.285,0.291,0.29733,0.3025,0.30767,0.31217,0.31617,0.3195,0.32133,0.3222,0.322,0.32067,0.3185,0.31567,0.31267,0.3086,0.305,0.30167,0.29767,0.293,0.28767,0.282,0.27633,0.27117,0.26717,0.264,0.25817,0.2505,0.23967,0.231,0.226,0.2255,0.22567,0.225,0.2225,0.21367,0.2055,0.20433,0.19917,0.19017,0.182,0.179,0.1775,0.163,0.1565,0.15383,0.156,0.14967,0.144,0.14267,0.141,0.1376,0.1305,0.119,0.1115,0.10367,0.0965,0.0874,0.083667,0.078667,0.069,0.068333,0.073,0.0766,0.082333,0.072333,0.0615,0.051167,0.0485,0.043667,0.036,0.024333,0.016,0.0105,0.0075,0.0063333,0.0053333,0.004,0.0038,0.0045,0.0038333,0.0035,0.0015,0.0021667,0.0055,0.0093333,0.018833,0.0305,0.0425,0.045833,0.0485,0.048167,0.046667,0.0455,0.044333,0.04,0.034,0.027667,0.0255,0.0264,0.024333,0.0175,0.0095,0.0018333,-0.003,-0.0038,-0.0053333,-0.0056667,-0.006,-0.0066667,-0.0085,-0.0096667,-0.011333,-0.013667,-0.0155,-0.017,-0.0185,-0.019833,-0.021167,-0.022,-0.0228,-0.024,-0.025,-0.0265,-0.027667,-0.0285,-0.0304,-0.031333,-0.033,-0.0345,-0.035667,-0.037,-0.0384,-0.039,-0.0395,-0.039833,-0.04,-0.041333,-0.043,-0.045667,-0.048333,-0.051,-0.053833,-0.0565,-0.0585,-0.059833,-0.0605,-0.0618,-0.063667,-0.0655,-0.0675,-0.068833,-0.07,-0.070667,-0.071333,-0.071667,-0.073,-0.073667,-0.0755,-0.075667,-0.076,-0.076667,-0.0774,-0.078,-0.078667,-0.079,-0.079667,-0.08,-0.08,-0.079833,-0.079,-0.078833,-0.078167,-0.0775,-0.0776,-0.078667,-0.079667,-0.080333,-0.082,-0.082667,-0.0835,-0.084167,-0.085,-0.0855,-0.085167,-0.085,-0.085,-0.085333,-0.086,-0.087,-0.088333,-0.089833,-0.090833,-0.092,-0.092,-0.0915,-0.090833,-0.09,-0.089167,-0.088167,-0.0875,-0.087333,-0.087,-0.086333,-0.0856,-0.0825,-0.0785,-0.0745,-0.072333,-0.0705,-0.0692,-0.067333,-0.065333,-0.0635,-0.058667,-0.0535,-0.0476,-0.044,-0.043,-0.041,-0.038,-0.039,-0.039,-0.037667,-0.034333,-0.0335,-0.031833,-0.0315,-0.03,-0.027667,-0.025,-0.0216,-0.018,-0.012667,-0.007,-0.0025,0.00033333,0.001,0.001,-0.00066667,-0.0036667,-0.0065,-0.010667,-0.015,-0.019167,-0.022667,-0.0235,-0.024,-0.0235,-0.022,-0.019667
-0.016,-0.018667,-0.021,-0.023,-0.025,-0.027,-0.027667,-0.028,-0.028,-0.028,-0.029,-0.029,-0.030333,-0.030667,-0.03,-0.029,-0.028333,-0.0278,-0.028333,-0.029667,-0.031,-0.033,-0.033667,-0.0334,-0.031667,-0.0315,-0.030667,-0.03,-0.029833,-0.029,-0.028333,-0.0285,-0.029333,-0.03,-0.03,-0.03,-0.03,-0.03,-0.03,-0.03,-0.029333,-0.027667,-0.025,-0.023167,-0.02,-0.021333,-0.023,-0.024,-0.024,-0.024,-0.0252,-0.026667,-0.027,-0.027,-0.027,-0.026333,-0.026,-0.026,-0.026333,-0.027,-0.028,-0.027333,-0.026667,-0.026,-0.024,-0.023,-0.020333,-0.018,-0.0156,-0.012667,-0.010667,-0.008,-0.0046667,-0.0016667,0.001,0.0036667,0.0066667,0.01,0.015333,0.022,0.03,0.04,0.051,0.061,0.070333,0.079333,0.088,0.094667,0.10133,0.108,0.11267,0.117,0.121,0.125,0.129,0.13333,0.138,0.14133,0.1446,0.14767,0.15083,0.154,0.157,0.16033,0.164,0.168,0.17283,0.178,0.18333,0.18867,0.194,0.2,0.20667,0.21333,0.22,0.225,0.23,0.23533,0.241,0.247,0.252,0.25633,0.26,0.264,0.2685,0.273,0.279,0.285,0.291,0.297,0.3025,0.307,0.312,0.31533,0.3188,0.32133,0.3225,0.32267,0.322,0.31917,0.316,0.31233,0.308,0.30333,0.298,0.29467,0.29033,0.285,0.27967,0.275,0.268,0.264,0.25933,0.254,0.24533,0.237,0.229,0.2225,0.22,0.22,0.21933,0.218,0.212,0.203,0.199,0.196,0.188,0.1836,0.18067,0.17767,0.167,0.159,0.16167,0.16233,0.161,0.15133,0.15,0.14933,0.149,0.1444,0.13333,0.13017,0.126,0.11333,0.10167,0.091,0.079333,0.071667,0.067,0.071667,0.072333,0.067,0.059,0.052833,0.047,0.044333,0.039667,0.033,0.023,0.016,0.01,0.008,0.0063333,0.005,0.004,0.004,0.0053333,0.006,0.004,0.0016,0.00066667,0.0046667,0.008,0.015,0.027667,0.038,0.046,0.047333,0.047,0.045667,0.043667,0.041,0.033,0.026333,0.021,0.020333,0.021667,0.021,0.015,0.0053333,-0.002,-0.006,-0.006,-0.006,-0.006,-0.0063333,-0.006,-0.0066667,-0.0076667,-0.009,-0.011667,-0.014,-0.015,-0.017,-0.019,-0.021,-0.022,-0.0235,-0.024,-0.024667,-0.026333,-0.027,-0.027667,-0.029667,-0.031,-0.032333,-0.033667,-0.035,-0.036333,-0.037667,-0.039,-0.04,-0.040667,-0.041333,-0.042,-0.043333,-0.046,-0.048,-0.050333,-0.053,-0.055667,-0.057667,-0.059,-0.060333,-0.061667,-0.063,-0.065,-0.067,-0.069,-0.07,-0.070333,-0.071,-0.072333,-0.073667,-0.075,-0.076333,-0.077,-0.077,-0.077667,-0.078,-0.078333,-0.079,-0.079333,-0.08,-0.08,-0.079667,-0.079,-0.079,-0.078667,-0.078,-0.077,-0.076,-0.076,-0.076,-0.078667,-0.081,-0.083,-0.083167,-0.084,-0.084667,-0.085,-0.085,-0.085,-0.085,-0.085,-0.085,-0.085667,-0.087,-0.089,-0.090333,-0.0914,-0.091667,-0.091667,-0.091,-0.090333,-0.089,-0.087,-0.086333,-0.086,-0.086,-0.085333,-0.0845,-0.0822,-0.078333,-0.074333,-0.071,-0.069667,-0.068667,-0.068,-0.068667,-0.068,-0.066,-0.06,-0.054167,-0.05,-0.049,-0.047667,-0.0448,-0.044,-0.042667,-0.04,-0.038,-0.036667,-0.036,-0.035,-0.033667,-0.031,-0.028333,-0.025167,-0.022,-0.016,-0.012,-0.0086,-0.0056667,-0.0048333,-0.005,-0.006,-0.0073333,-0.0098,-0.013667,-0.017667,-0.021,-0.023,-0.024,-0.024,-0.023,-0.020667,-0.018
-0.016,-0.018,-0.020333,-0.023,-0.025,-0.027,-0.0274,-0.027,-0.027333,-0.027,-0.028333,-0.029667,-0.0306,-0.031,-0.031333,-0.031,-0.030333,-0.029667,-0.029,-0.0295,-0.031,-0.033,-0.033667,-0.033667,-0.033,-0.033167,-0.032333,-0.031,-0.030333,-0.029,-0.029,-0.030167,-0.031333,-0.032,-0.031333,-0.030667,-0.03,-0.03,-0.03,-0.03,-0.029333,-0.028,-0.026,-0.024,-0.022667,-0.024,-0.0245,-0.025,-0.025,-0.025,-0.025333,-0.026,-0.026167,-0.026333,-0.026,-0.026,-0.026,-0.026,-0.026833,-0.027667,-0.028,-0.027333,-0.026333,-0.025,-0.023667,-0.022333,-0.02,-0.018,-0.016,-0.014,-0.011333,-0.0086667,-0.005,-0.0023333,0.00033333,0.002,0.0045,0.0073333,0.011,0.0175,0.026,0.036,0.046667,0.057667,0.068,0.0775,0.086667,0.094,0.10067,0.108,0.113,0.117,0.121,0.125,0.129,0.133,0.137,0.14033,0.14367,0.147,0.1505,0.154,0.157,0.16033,0.164,0.168,0.17333,0.178,0.183,0.1885,0.194,0.201,0.20767,0.214,0.22,0.22533,0.23067,0.2356,0.241,0.24633,0.251,0.255,0.25867,0.2636,0.2685,0.27367,0.279,0.285,0.291,0.297,0.3025,0.307,0.311,0.31567,0.31933,0.322,0.32367,0.324,0.324,0.32067,0.31733,0.313,0.3075,0.302,0.296,0.292,0.287,0.281,0.27633,0.27433,0.271,0.26633,0.25867,0.248,0.24,0.23367,0.229,0.22617,0.22233,0.219,0.21633,0.214,0.212,0.203,0.199,0.191,0.18167,0.17867,0.182,0.18,0.17033,0.169,0.16967,0.168,0.164,0.158,0.154,0.153,0.15467,0.15333,0.15,0.14683,0.13467,0.12,0.10067,0.089,0.078,0.068333,0.063667,0.065,0.0595,0.053667,0.046,0.042667,0.037667,0.035,0.0355,0.029667,0.021,0.014833,0.0093333,0.007,0.006,0.0046667,0.004,0.0043333,0.0053333,0.006,0.0033333,0.002,0.002,0.0036667,0.0046667,0.011,0.023667,0.034333,0.043,0.045,0.046333,0.045,0.039,0.029,0.02,0.015833,0.015667,0.015,0.015167,0.014333,0.007,0.00033333,-0.0046667,-0.008,-0.0083333,-0.008,-0.008,-0.0073333,-0.0073333,-0.006,-0.007,-0.0083333,-0.01,-0.012,-0.014333,-0.016,-0.018667,-0.020667,-0.022,-0.022667,-0.023333,-0.024,-0.024833,-0.025667,-0.027,-0.028833,-0.030333,-0.032,-0.033167,-0.034667,-0.036,-0.038,-0.039,-0.04,-0.040667,-0.041333,-0.042,-0.044,-0.046,-0.048,-0.05,-0.052,-0.055,-0.057167,-0.058333,-0.0602,-0.0615,-0.063,-0.065,-0.067,-0.068667,-0.07,-0.0705,-0.071667,-0.073,-0.074333,-0.075667,-0.077,-0.077833,-0.077667,-0.079,-0.079,-0.079,-0.079,-0.079667,-0.08,-0.08,-0.08,-0.079667,-0.079,-0.079333,-0.078333,-0.077,-0.075,-0.074,-0.074,-0.076667,-0.079,-0.081,-0.082333,-0.083333,-0.084,-0.084667,-0.084333,-0.085,-0.084667,-0.084333,-0.085,-0.085,-0.085667,-0.087,-0.088333,-0.089667,-0.091,-0.091167,-0.091,-0.0898,-0.0885,-0.087,-0.085,-0.084167,-0.084,-0.083,-0.0825,-0.080333,-0.077,-0.0745,-0.073,-0.071,-0.069667,-0.07,-0.072,-0.072167,-0.07,-0.065,-0.059,-0.053333,-0.052,-0.052,-0.050667,-0.048,-0.044833,-0.042,-0.04,-0.040167,-0.039,-0.037,-0.036,-0.034333,-0.033,-0.028333,-0.024667,-0.02,-0.016,-0.013,-0.011,-0.010333,-0.0096667,-0.01,-0.011333,-0.013667,-0.017,-0.019667,-0.023,-0.025,-0.025167,-0.024333,-0.023,-0.021333,-0.018667
-0.016667,-0.0185,-0.021333,-0.023667,-0.026,-0.027667,-0.0285,-0.0278,-0.027333,-0.027667,-0.0285,-0.03,-0.031,-0.0316,-0.032333,-0.032333,-0.0315,-0.030667,-0.029667,-0.03,-0.031667,-0.033,-0.034,-0.034333,-0.034333,-0.0335,-0.032667,-0.031,-0.03,-0.029,-0.029667,-0.0312,-0.0325,-0.032,-0.0315,-0.031,-0.030333,-0.03,-0.03,-0.03,-0.029667,-0.0295,-0.027333,-0.0262,-0.0255,-0.026,-0.0256,-0.0255,-0.0255,-0.026,-0.026667,-0.0265,-0.0265,-0.026333,-0.026667,-0.0265,-0.026667,-0.028,-0.0285,-0.028667,-0.0285,-0.028167,-0.027,-0.025667,-0.0242,-0.022,-0.02,-0.0184,-0.0165,-0.014667,-0.012,-0.009,-0.005,-0.0025,-5.5511e-20,0.00083333,0.0025,0.005,0.0083333,0.014,0.022333,0.0315,0.0425,0.054,0.065333,0.0755,0.085,0.093333,0.1004,0.1075,0.113,0.117,0.121,0.125,0.1286,0.1325,0.1365,0.14,0.14367,0.14733,0.1505,0.154,0.15667,0.16,0.1645,0.16867,0.1736,0.178,0.183,0.189,0.19467,0.20167,0.209,0.21567,0.22133,0.227,0.23167,0.2365,0.2412,0.24633,0.25033,0.255,0.25867,0.2635,0.269,0.275,0.281,0.287,0.293,0.29833,0.303,0.308,0.31233,0.317,0.321,0.32467,0.3265,0.328,0.32667,0.3235,0.319,0.313,0.3062,0.3,0.294,0.289,0.283,0.2755,0.273,0.27567,0.27583,0.27083,0.256,0.24133,0.2378,0.2335,0.233,0.2352,0.233,0.22867,0.226,0.229,0.22083,0.213,0.206,0.19233,0.182,0.18,0.18467,0.181,0.17433,0.17067,0.16967,0.1685,0.16533,0.158,0.1535,0.151,0.1504,0.149,0.14533,0.147,0.13533,0.114,0.099,0.087333,0.073333,0.0625,0.057333,0.053667,0.0495,0.044,0.040167,0.0355,0.03,0.029667,0.033,0.028167,0.021,0.0142,0.009,0.007,0.0065,0.0051667,0.004,0.0038,0.0045,0.0038333,0.0025,8.8818e-17,-0.00016667,-1.1059e-17,0.001,0.0095,0.020167,0.0335,0.04,0.0416,0.043,0.039,0.028,0.017,0.008,0.006,0.0071667,0.0076667,0.0085,0.0066667,0.0028333,-0.0035,-0.0083333,-0.011333,-0.0105,-0.01,-0.0093333,-0.0085,-0.0086667,-0.0081667,-0.0075,-0.0083333,-0.0093333,-0.011,-0.0135,-0.0155,-0.018,-0.019833,-0.021333,-0.0218,-0.0225,-0.022667,-0.023,-0.023833,-0.025,-0.027,-0.029,-0.030833,-0.0325,-0.033833,-0.0355,-0.0375,-0.039,-0.040333,-0.041333,-0.0425,-0.043333,-0.0442,-0.046,-0.048,-0.05,-0.052,-0.054333,-0.0565,-0.058,-0.06,-0.0614,-0.063,-0.065,-0.067,-0.068833,-0.07,-0.0705,-0.072,-0.073,-0.0746,-0.076,-0.077167,-0.0785,-0.078333,-0.079,-0.079,-0.079,-0.079167,-0.0795,-0.080333,-0.080667,-0.0805,-0.080333,-0.0805,-0.08,-0.078667,-0.077667,-0.075,-0.073333,-0.073167,-0.074833,-0.077,-0.079667,-0.0814,-0.083,-0.083333,-0.084,-0.084,-0.084,-0.084,-0.084,-0.084333,-0.084,-0.0845,-0.085833,-0.087,-0.088333,-0.089833,-0.0905,-0.090667,-0.09,-0.0886,-0.087,-0.085,-0.083,-0.081833,-0.081,-0.0802,-0.0785,-0.076667,-0.076,-0.074333,-0.072333,-0.072,-0.072,-0.073,-0.0735,-0.072,-0.067667,-0.0615,-0.055667,-0.053833,-0.053167,-0.053,-0.049333,-0.0465,-0.044,-0.042667,-0.0428,-0.0415,-0.039667,-0.039,-0.038,-0.035667,-0.0312,-0.0275,-0.023,-0.019,-0.016667,-0.0155,-0.014,-0.013333,-0.013333,-0.014333,-0.017,-0.019667,-0.022,-0.025,-0.026333,-0.0262,-0.0255,-0.024333,-0.022,-0.019333
-0.017333,-0.019167,-0.022,-0.024667,-0.027167,-0.029,-0.029,-0.028667,-0.028,-0.028333,-0.0285,-0.03,-0.031333,-0.032,-0.033,-0.033,-0.032667,-0.032,-0.031,-0.031667,-0.033,-0.033333,-0.034,-0.035,-0.035,-0.0335,-0.032,-0.031,-0.029667,-0.029,-0.030333,-0.032,-0.033,-0.032333,-0.031667,-0.031,-0.03,-0.03,-0.03,-0.03,-0.03,-0.0302,-0.029,-0.029,-0.0284,-0.028,-0.027,-0.027,-0.027,-0.026833,-0.028,-0.028,-0.027667,-0.027,-0.027333,-0.027333,-0.028,-0.029667,-0.030333,-0.03,-0.03,-0.028667,-0.0274,-0.026333,-0.025,-0.0226,-0.020333,-0.0185,-0.0174,-0.015667,-0.013,-0.009,-0.0046667,-0.0016667,2.9643e-17,0.001,0.0016667,0.003,0.0063333,0.011833,0.019,0.027,0.037667,0.05,0.061667,0.072833,0.083,0.092,0.1,0.1066,0.11233,0.11667,0.121,0.12433,0.128,0.132,0.136,0.13917,0.143,0.147,0.1505,0.154,0.157,0.16033,0.1648,0.16933,0.1745,0.1788,0.18333,0.18933,0.196,0.203,0.2105,0.217,0.223,0.2285,0.233,0.23767,0.2425,0.247,0.251,0.2555,0.26,0.26533,0.27083,0.277,0.28367,0.28933,0.295,0.30067,0.30533,0.31,0.31467,0.31933,0.323,0.328,0.33017,0.332,0.33,0.3265,0.321,0.31367,0.306,0.2986,0.29233,0.28667,0.279,0.271,0.26983,0.279,0.283,0.26967,0.2532,0.23667,0.234,0.237,0.239,0.243,0.247,0.249,0.24633,0.251,0.247,0.23417,0.22,0.20467,0.19117,0.192,0.19,0.1825,0.179,0.172,0.16733,0.166,0.16533,0.161,0.1504,0.146,0.14,0.1398,0.141,0.13933,0.128,0.113,0.096833,0.086,0.068,0.057167,0.048,0.044667,0.040833,0.038,0.035,0.029667,0.024,0.028,0.032333,0.03,0.021,0.0145,0.0094,0.007,0.0065,0.005,0.0036667,0.003,0.0033333,0.004,0.0013333,0,-0.002,-0.0025,-0.003,0.002,0.016667,0.029,0.037,0.037,0.0334,0.029,0.017667,0.005,-5.892e-17,0.001,-8.8929e-17,0.00066667,-1.5569e-16,-0.002,-0.004,-0.006,-0.012,-0.013667,-0.012667,-0.012,-0.011,-0.010833,-0.01,-0.0093333,-0.009,-0.009,-0.0093333,-0.011,-0.0132,-0.015333,-0.017333,-0.019,-0.020667,-0.021,-0.0208,-0.020667,-0.02,-0.021,-0.022333,-0.025,-0.027,-0.03,-0.031333,-0.033,-0.035,-0.037,-0.039,-0.041,-0.042333,-0.0434,-0.044333,-0.0455,-0.0466,-0.048333,-0.050167,-0.052,-0.054,-0.056,-0.058,-0.059333,-0.061,-0.063,-0.065,-0.067,-0.069,-0.07,-0.070667,-0.072,-0.073,-0.0745,-0.0756,-0.076667,-0.078333,-0.079,-0.078667,-0.079,-0.079333,-0.08,-0.080667,-0.081,-0.081333,-0.081,-0.081,-0.081,-0.081167,-0.08,-0.078667,-0.076,-0.074,-0.073,-0.074333,-0.076,-0.078667,-0.0805,-0.082,-0.082667,-0.083333,-0.084,-0.084,-0.084,-0.084,-0.084,-0.084,-0.084333,-0.085,-0.085833,-0.087,-0.089,-0.089333,-0.09,-0.089667,-0.088333,-0.087,-0.085,-0.083,-0.081,-0.079667,-0.0785,-0.0768,-0.075333,-0.075167,-0.075,-0.073333,-0.073167,-0.074,-0.074,-0.072833,-0.072,-0.068333,-0.062667,-0.057,-0.053,-0.051667,-0.0514,-0.049667,-0.047333,-0.046,-0.044667,-0.0455,-0.044,-0.042,-0.042667,-0.042,-0.037667,-0.0335,-0.029333,-0.026,-0.022667,-0.02,-0.019,-0.017833,-0.016,-0.016,-0.018,-0.0206,-0.023,-0.025667,-0.027,-0.027667,-0.0275,-0.0264,-0.025333,-0.022667,-0.02
-0.018,-0.02,-0.022667,-0.026,-0.028,-0.029667,-0.0298,-0.0295,-0.029,-0.029,-0.029,-0.03,-0.0304,-0.0315,-0.032333,-0.033,-0.033,-0.033,-0.033,-0.0325,-0.033,-0.034,-0.034,-0.034333,-0.035,-0.033667,-0.032333,-0.031,-0.030333,-0.030333,-0.031,-0.032333,-0.033,-0.033,-0.032333,-0.031667,-0.031,-0.030333,-0.030333,-0.031,-0.031,-0.031,-0.031,-0.031,-0.030667,-0.03,-0.028667,-0.028,-0.028,-0.028,-0.028333,-0.029,-0.029,-0.028667,-0.028,-0.028667,-0.029667,-0.031,-0.031667,-0.031667,-0.031,-0.029667,-0.028333,-0.027,-0.025,-0.023,-0.021,-0.019667,-0.018333,-0.017,-0.013,-0.0086667,-0.004,-0.00066667,0.0013333,0.002,0.002,0.003,0.005,0.0096667,0.015667,0.023,0.033667,0.045,0.057,0.069,0.08,0.09,0.098,0.105,0.111,0.115,0.119,0.123,0.12633,0.13,0.134,0.138,0.14233,0.147,0.15033,0.154,0.157,0.161,0.16533,0.17,0.17467,0.17933,0.184,0.19067,0.19767,0.205,0.21283,0.219,0.225,0.2305,0.23567,0.2402,0.2445,0.249,0.253,0.25767,0.26267,0.268,0.274,0.28033,0.287,0.293,0.299,0.304,0.3095,0.314,0.318,0.32267,0.32733,0.332,0.33517,0.33533,0.334,0.32883,0.32233,0.315,0.30633,0.29833,0.291,0.28367,0.27633,0.269,0.27033,0.281,0.287,0.26967,0.252,0.234,0.236,0.24033,0.247,0.253,0.25833,0.263,0.26767,0.26933,0.268,0.258,0.24467,0.228,0.20917,0.20133,0.198,0.1815,0.17367,0.169,0.159,0.15733,0.164,0.15333,0.14467,0.138,0.13533,0.135,0.137,0.137,0.13033,0.117,0.0915,0.076667,0.066,0.052667,0.043333,0.038,0.0365,0.034,0.032,0.025333,0.024667,0.03,0.032667,0.029667,0.021,0.0135,0.0096667,0.007,0.0063333,0.005,0.003,0.0021667,0.002,0.002,-4.4452e-17,-0.0013333,-0.002,-0.004,-0.003,0.001,0.012333,0.023,0.033,0.029667,0.023667,0.015,0.0063333,-2.0752e-16,-0.004,-0.0033333,-0.004,-0.006,-0.0065,-0.0083333,-0.009,-0.010333,-0.012333,-0.015,-0.014167,-0.013667,-0.013,-0.013,-0.012,-0.012,-0.011333,-0.010667,-0.01,-0.012,-0.014,-0.016,-0.017333,-0.018667,-0.02,-0.0205,-0.019333,-0.018,-0.016667,-0.017,-0.019,-0.022333,-0.025333,-0.028,-0.03,-0.032,-0.034,-0.036667,-0.039,-0.041,-0.042333,-0.043667,-0.045,-0.046333,-0.047667,-0.049,-0.051,-0.052667,-0.054,-0.056,-0.058,-0.059333,-0.061,-0.063,-0.065,-0.067,-0.068667,-0.07,-0.0705,-0.071667,-0.073,-0.074333,-0.075333,-0.076,-0.077333,-0.078,-0.078,-0.078667,-0.079333,-0.08,-0.081333,-0.082,-0.082,-0.082,-0.082333,-0.083,-0.082333,-0.081333,-0.08,-0.078,-0.076333,-0.075,-0.075,-0.076,-0.078,-0.079333,-0.080667,-0.082,-0.082667,-0.083333,-0.084,-0.084,-0.084,-0.084,-0.084,-0.084,-0.084,-0.084667,-0.085667,-0.087,-0.087667,-0.088333,-0.089,-0.0885,-0.087,-0.085,-0.083,-0.081,-0.079,-0.077,-0.075333,-0.074,-0.074,-0.074,-0.074,-0.074,-0.072667,-0.072,-0.071333,-0.069667,-0.067,-0.063,-0.058333,-0.054,-0.051333,-0.049667,-0.049,-0.0475,-0.046667,-0.046,-0.046,-0.045333,-0.044,-0.043,-0.041667,-0.039,-0.035,-0.031333,-0.028,-0.025333,-0.023667,-0.023,-0.021,-0.02,-0.02,-0.022,-0.024333,-0.027,-0.027667,-0.028333,-0.029,-0.028333,-0.027333,-0.026,-0.023333,-0.020333
-0.018333,-0.0205,-0.024,-0.026833,-0.0285,-0.029333,-0.0295,-0.0294,-0.028667,-0.0285,-0.0285,-0.029,-0.0295,-0.0308,-0.031667,-0.032333,-0.033,-0.033,-0.033833,-0.0335,-0.032667,-0.032667,-0.0335,-0.034333,-0.034167,-0.0335,-0.032333,-0.030833,-0.0295,-0.029667,-0.030333,-0.0315,-0.032667,-0.032333,-0.031667,-0.0315,-0.030833,-0.0305,-0.03,-0.030667,-0.031,-0.032,-0.0325,-0.032167,-0.032,-0.031333,-0.030667,-0.0295,-0.029,-0.029667,-0.0305,-0.0305,-0.0305,-0.029333,-0.0295,-0.0295,-0.030333,-0.031667,-0.0325,-0.032333,-0.031333,-0.030333,-0.0285,-0.027167,-0.025167,-0.023,-0.021167,-0.020167,-0.019,-0.0165,-0.013167,-0.0085,-0.0036667,0,0.0025,0.0023333,0.002,0.0015,0.004,0.0076667,0.0125,0.020167,0.028833,0.0395,0.0515,0.0635,0.076,0.086167,0.0955,0.103,0.10767,0.112,0.116,0.1195,0.1235,0.1275,0.13183,0.13683,0.142,0.14667,0.15067,0.154,0.1575,0.16183,0.166,0.17083,0.17583,0.1805,0.18617,0.193,0.20033,0.20833,0.216,0.22233,0.22833,0.2335,0.23867,0.2435,0.248,0.25267,0.257,0.261,0.266,0.271,0.2778,0.28433,0.29133,0.298,0.304,0.30917,0.314,0.31883,0.32333,0.3285,0.33333,0.338,0.3405,0.34133,0.338,0.331,0.32367,0.31567,0.307,0.29767,0.289,0.28133,0.2745,0.26817,0.2725,0.28,0.279,0.26967,0.252,0.245,0.24633,0.255,0.2615,0.26717,0.2705,0.27583,0.28017,0.2795,0.28067,0.281,0.268,0.24667,0.217,0.20467,0.192,0.179,0.168,0.158,0.15167,0.15,0.15133,0.14567,0.141,0.14267,0.142,0.15,0.15483,0.15117,0.133,0.10817,0.082167,0.0665,0.0575,0.0495,0.04,0.036833,0.035167,0.032,0.026833,0.0245,0.0235,0.029667,0.029,0.026,0.017833,0.0125,0.009,0.0076667,0.0063333,0.0045,0.0026667,0.0016667,0.0005,-0.00033333,-0.0016667,-0.002,-0.003,-0.005,-0.0065,-0.00033333,0.0083333,0.021,0.023,0.018333,0.0115,0.0023333,-0.0016,-0.0075,-0.007,-0.0073333,-0.007,-0.0085,-0.010167,-0.01,-0.0095,-0.010833,-0.0135,-0.014833,-0.015167,-0.015,-0.015,-0.014667,-0.0145,-0.013833,-0.013167,-0.0125,-0.012833,-0.013167,-0.0145,-0.015833,-0.0175,-0.019,-0.020333,-0.020333,-0.0185,-0.0155,-0.0135,-0.013,-0.015833,-0.019167,-0.023,-0.025167,-0.027833,-0.0305,-0.033333,-0.036333,-0.039,-0.041,-0.042667,-0.044,-0.045333,-0.046667,-0.0485,-0.049833,-0.051,-0.053,-0.054,-0.055833,-0.0575,-0.0595,-0.0606,-0.062667,-0.0645,-0.066167,-0.068,-0.069333,-0.070667,-0.0715,-0.072167,-0.073167,-0.0745,-0.075667,-0.076333,-0.0775,-0.077667,-0.078333,-0.079,-0.080333,-0.081667,-0.083,-0.0825,-0.082833,-0.083,-0.083167,-0.083167,-0.0825,-0.081167,-0.0795,-0.078,-0.0765,-0.075833,-0.0755,-0.076833,-0.0785,-0.08,-0.080833,-0.081833,-0.083,-0.083667,-0.084,-0.084,-0.084,-0.084,-0.0835,-0.0835,-0.083833,-0.0845,-0.085667,-0.086333,-0.0875,-0.088333,-0.0885,-0.087333,-0.086,-0.0835,-0.081167,-0.079,-0.0766,-0.074,-0.073833,-0.0735,-0.074,-0.073833,-0.072833,-0.071,-0.070333,-0.069667,-0.069,-0.065833,-0.0625,-0.06,-0.056,-0.053,-0.05,-0.0485,-0.047167,-0.046,-0.045333,-0.044667,-0.044,-0.042667,-0.041667,-0.041,-0.0385,-0.0355,-0.032,-0.029167,-0.027833,-0.027,-0.026167,-0.024833,-0.024,-0.024667,-0.026,-0.027,-0.028167,-0.029167,-0.03,-0.0295,-0.029167,-0.0285,-0.0265,-0.024167,-0.0215
-0.018333,-0.020667,-0.024,-0.026,-0.027333,-0.028,-0.028,-0.028,-0.028,-0.027333,-0.027,-0.027,-0.028333,-0.029667,-0.031,-0.031667,-0.032333,-0.033,-0.033,-0.032667,-0.032,-0.032,-0.032333,-0.033,-0.033667,-0.033667,-0.033,-0.031,-0.029667,-0.029,-0.029667,-0.030833,-0.032,-0.032,-0.032,-0.031667,-0.031,-0.030333,-0.03,-0.03,-0.031333,-0.032667,-0.034,-0.034,-0.033667,-0.033,-0.031667,-0.030667,-0.03,-0.031333,-0.032,-0.032,-0.031,-0.03,-0.029333,-0.029667,-0.031,-0.031667,-0.032333,-0.033,-0.032,-0.03,-0.028,-0.026,-0.024667,-0.023,-0.021,-0.020333,-0.019,-0.017,-0.013667,-0.0093333,-0.004,-0.00066667,0.0013333,0.002,0.0013333,0.0013333,0.002,0.0053333,0.01,0.016,0.024667,0.034667,0.046,0.058667,0.070667,0.082,0.091333,0.098667,0.104,0.108,0.11233,0.117,0.121,0.12533,0.13,0.136,0.14167,0.147,0.151,0.15467,0.158,0.162,0.16633,0.171,0.17633,0.1824,0.18867,0.19567,0.203,0.211,0.21833,0.225,0.231,0.23667,0.242,0.24667,0.25133,0.256,0.26067,0.26533,0.27,0.27533,0.28167,0.289,0.29633,0.30333,0.31,0.31533,0.32033,0.325,0.32967,0.33467,0.34,0.34467,0.34667,0.346,0.34067,0.33367,0.325,0.31567,0.307,0.297,0.288,0.28,0.275,0.273,0.273,0.27733,0.286,0.27667,0.267,0.257,0.26567,0.274,0.282,0.284,0.28667,0.29,0.28867,0.28733,0.286,0.287,0.284,0.25067,0.22267,0.2,0.18467,0.1725,0.16,0.151,0.14633,0.14567,0.149,0.14367,0.141,0.141,0.15033,0.16133,0.174,0.162,0.13867,0.104,0.072667,0.056,0.054,0.044667,0.038333,0.035,0.030333,0.027,0.025,0.023,0.023,0.025,0.024333,0.021333,0.016,0.011333,0.0083333,0.007,0.0056667,0.0043333,0.003,0.0016667,0.00033333,-0.001,-0.0023333,-0.0033333,-0.004,-0.006,-0.006,-0.004,0.0046667,0.011333,0.016,0.008,0.0024,-0.0046667,-0.0075,-0.009,-0.011,-0.0096667,-0.0096667,-0.011,-0.010333,-0.0096667,-0.009,-0.011667,-0.014,-0.016,-0.016667,-0.017333,-0.018,-0.018,-0.018,-0.018,-0.017333,-0.016333,-0.015,-0.015,-0.015667,-0.017,-0.018333,-0.019667,-0.021,-0.019667,-0.017333,-0.014,-0.011333,-0.010667,-0.012,-0.016,-0.02,-0.024,-0.026667,-0.029667,-0.033,-0.035667,-0.038333,-0.041,-0.043,-0.044333,-0.045,-0.047,-0.048667,-0.05,-0.0515,-0.053,-0.054333,-0.0555,-0.057,-0.058667,-0.060667,-0.062,-0.064,-0.066,-0.067667,-0.069,-0.070333,-0.071333,-0.072,-0.072667,-0.073333,-0.074,-0.074667,-0.075667,-0.077,-0.077667,-0.078667,-0.08,-0.081333,-0.082333,-0.083,-0.083,-0.083333,-0.084,-0.084,-0.083667,-0.083,-0.081,-0.079333,-0.078,-0.076667,-0.076,-0.076,-0.077333,-0.078667,-0.08,-0.081333,-0.082333,-0.083,-0.083,-0.083,-0.083,-0.083,-0.083,-0.083,-0.083,-0.083333,-0.084,-0.085333,-0.0864,-0.087333,-0.087167,-0.087,-0.086,-0.085,-0.083,-0.079667,-0.0765,-0.074333,-0.073,-0.073,-0.073,-0.073,-0.071,-0.069333,-0.068,-0.068,-0.067,-0.065,-0.063,-0.060667,-0.058,-0.054667,-0.051333,-0.048,-0.046,-0.044333,-0.043,-0.042333,-0.041333,-0.04,-0.039333,-0.038,-0.036,-0.033333,-0.031333,-0.03,-0.03,-0.029667,-0.029,-0.027667,-0.027667,-0.029,-0.029,-0.029333,-0.03,-0.03,-0.029667,-0.029,-0.029,-0.028667,-0.028,-0.025333,-0.022333
-0.019,-0.021333,-0.024,-0.025333,-0.026333,-0.027,-0.027,-0.026667,-0.026,-0.025333,-0.025333,-0.026,-0.028,-0.029667,-0.031,-0.031667,-0.032333,-0.033,-0.032333,-0.031667,-0.031,-0.031,-0.031333,-0.032,-0.033333,-0.033667,-0.033,-0.031,-0.029333,-0.028,-0.029333,-0.0305,-0.031333,-0.032,-0.032,-0.032,-0.032,-0.030667,-0.03,-0.03,-0.031333,-0.032667,-0.034,-0.034,-0.033667,-0.033,-0.032333,-0.031667,-0.031,-0.032333,-0.033,-0.033,-0.031667,-0.03,-0.0292,-0.029333,-0.03,-0.031333,-0.032,-0.031667,-0.031,-0.029,-0.027,-0.025,-0.023,-0.021333,-0.02,-0.02,-0.019333,-0.018,-0.014667,-0.011,-0.007,-0.0036667,-0.0013333,-8.8818e-17,-0.00066667,-0.00033333,0.001,0.0036667,0.0076667,0.013,0.021,0.03,0.04,0.052,0.064,0.076,0.085333,0.093,0.099,0.10433,0.10933,0.114,0.11867,0.12333,0.128,0.134,0.13967,0.145,0.149,0.153,0.157,0.16167,0.16667,0.172,0.178,0.18467,0.192,0.19883,0.206,0.214,0.22167,0.229,0.235,0.241,0.247,0.25233,0.257,0.261,0.26567,0.27033,0.275,0.281,0.28767,0.295,0.30367,0.311,0.317,0.32167,0.32667,0.332,0.338,0.34333,0.348,0.35133,0.352,0.35,0.34267,0.334,0.324,0.316,0.3075,0.29767,0.287,0.283,0.27967,0.277,0.28167,0.28567,0.289,0.28433,0.28033,0.277,0.28367,0.29167,0.301,0.30367,0.30467,0.304,0.29933,0.292,0.282,0.284,0.284,0.2624,0.22767,0.197,0.18433,0.17,0.15733,0.148,0.152,0.148,0.136,0.138,0.138,0.136,0.14667,0.16133,0.18,0.16867,0.142,0.1,0.07,0.051667,0.045,0.040333,0.036333,0.033,0.028333,0.024,0.02,0.022667,0.023333,0.022,0.019333,0.017,0.015,0.011,0.008,0.006,0.0046667,0.0033333,0.002,0.0013333,0.00033333,-0.001,-0.0023333,-0.0033333,-0.004,-0.0053333,-0.005,-0.003,0.0043333,0.009,0.011,0.0016667,-0.0046667,-0.008,-0.0086667,-0.0093333,-0.01,-0.012,-0.013,-0.013,-0.011,-0.0096667,-0.009,-0.012333,-0.015,-0.017,-0.018333,-0.019333,-0.02,-0.020667,-0.021,-0.021,-0.019667,-0.018667,-0.018,-0.018,-0.018,-0.018,-0.02,-0.021333,-0.022,-0.020667,-0.018,-0.014,-0.011333,-0.010333,-0.011,-0.015,-0.019,-0.023,-0.025667,-0.028667,-0.032,-0.034667,-0.037333,-0.04,-0.042,-0.044,-0.046,-0.047333,-0.049,-0.051,-0.051667,-0.052333,-0.054,-0.055333,-0.056667,-0.058,-0.060167,-0.062,-0.064,-0.065333,-0.067,-0.069,-0.069667,-0.070667,-0.072,-0.072667,-0.073,-0.073,-0.073667,-0.074333,-0.075,-0.077,-0.078667,-0.08,-0.080667,-0.081333,-0.082,-0.082667,-0.083333,-0.084,-0.083333,-0.082667,-0.082,-0.081333,-0.080333,-0.079,-0.078333,-0.077667,-0.077,-0.077667,-0.078333,-0.079,-0.080333,-0.081333,-0.082,-0.082667,-0.083,-0.083,-0.083,-0.083,-0.083,-0.083,-0.083333,-0.084,-0.084667,-0.085333,-0.086,-0.086,-0.086,-0.086,-0.085,-0.083,-0.081,-0.077667,-0.075333,-0.074,-0.073333,-0.072667,-0.072,-0.07,-0.068333,-0.067,-0.066333,-0.065,-0.063,-0.060333,-0.058333,-0.057,-0.053667,-0.050333,-0.047,-0.044333,-0.042,-0.04,-0.038667,-0.037667,-0.037,-0.036333,-0.035333,-0.034,-0.031333,-0.029667,-0.029,-0.029667,-0.03,-0.03,-0.03,-0.030333,-0.031,-0.031,-0.031,-0.031,-0.029667,-0.029,-0.029,-0.029,-0.028667,-0.028,-0.026,-0.023333
-0.0195,-0.022167,-0.0245,-0.026,-0.025833,-0.0255,-0.0255,-0.0255,-0.024833,-0.0235,-0.023667,-0.025333,-0.0275,-0.029167,-0.031167,-0.0325,-0.033,-0.033,-0.033,-0.031667,-0.030667,-0.03,-0.031333,-0.032333,-0.0335,-0.034,-0.033,-0.031,-0.029167,-0.028833,-0.029,-0.0304,-0.031333,-0.032333,-0.033,-0.033667,-0.032667,-0.032,-0.030667,-0.031333,-0.032,-0.033333,-0.033833,-0.034,-0.034,-0.033333,-0.0325,-0.032,-0.032,-0.032,-0.032667,-0.032167,-0.0315,-0.03,-0.029,-0.029167,-0.030167,-0.031,-0.0312,-0.030667,-0.029333,-0.028,-0.025667,-0.0235,-0.0215,-0.02,-0.019667,-0.0195,-0.019,-0.017833,-0.016,-0.013,-0.01,-0.0065,-0.0033333,-0.0025,-0.002,-0.001,0.00016667,0.002,0.0053333,0.0105,0.0165,0.024667,0.034333,0.0452,0.057,0.068667,0.0795,0.088333,0.0955,0.1015,0.10633,0.11133,0.116,0.12067,0.12617,0.132,0.138,0.14233,0.1465,0.15067,0.15583,0.1615,0.16767,0.175,0.1815,0.18867,0.19567,0.203,0.2105,0.2175,0.22483,0.23183,0.2395,0.24633,0.253,0.259,0.26383,0.2685,0.273,0.27767,0.28267,0.288,0.29483,0.30283,0.3115,0.31883,0.32483,0.3295,0.33467,0.34,0.346,0.35133,0.35567,0.359,0.35833,0.35333,0.3445,0.33417,0.32417,0.316,0.3086,0.298,0.29033,0.2895,0.28667,0.28817,0.2915,0.29667,0.29967,0.2975,0.29133,0.29317,0.2985,0.30767,0.31433,0.318,0.31367,0.30867,0.2995,0.284,0.27333,0.2745,0.27933,0.268,0.23083,0.2055,0.1865,0.1736,0.16,0.16083,0.1495,0.13933,0.132,0.13,0.13433,0.14333,0.1495,0.16367,0.16717,0.1585,0.12967,0.093833,0.0675,0.051667,0.044333,0.04,0.034667,0.030333,0.027,0.021667,0.021333,0.024,0.023667,0.019333,0.0195,0.018,0.012833,0.01,0.0073333,0.0055,0.004,0.0026667,0.0013333,0.0015,0.00033333,-0.0011667,-0.0025,-0.0033333,-0.0038333,-0.0036,-0.004,-0.0013333,0.0025,0.009,0.0048333,-0.0005,-0.0063333,-0.0085,-0.01,-0.011,-0.012667,-0.0135,-0.014333,-0.014333,-0.013,-0.011333,-0.012167,-0.0135,-0.016667,-0.019,-0.0202,-0.021,-0.022167,-0.023,-0.023,-0.022667,-0.0215,-0.021,-0.020167,-0.02,-0.02,-0.020833,-0.0215,-0.022667,-0.023333,-0.022,-0.019,-0.0155,-0.013,-0.012,-0.012333,-0.015,-0.0185,-0.022167,-0.0255,-0.028833,-0.031833,-0.0345,-0.037333,-0.039833,-0.042,-0.044333,-0.046,-0.048,-0.049333,-0.050667,-0.0515,-0.052,-0.053333,-0.0545,-0.056,-0.058,-0.0595,-0.061667,-0.063167,-0.0645,-0.0665,-0.068333,-0.0692,-0.0705,-0.071333,-0.0715,-0.071333,-0.071833,-0.0725,-0.073333,-0.074667,-0.076,-0.077667,-0.079167,-0.08,-0.080667,-0.081333,-0.082,-0.082667,-0.0825,-0.0825,-0.0825,-0.082,-0.082,-0.081333,-0.080333,-0.0795,-0.078667,-0.077667,-0.0775,-0.078,-0.078667,-0.0795,-0.080667,-0.081333,-0.082,-0.082667,-0.083,-0.083,-0.083,-0.083,-0.083,-0.083167,-0.084,-0.084,-0.084667,-0.085333,-0.0856,-0.0855,-0.085333,-0.0852,-0.0835,-0.080667,-0.0785,-0.076,-0.074667,-0.0735,-0.073,-0.070667,-0.07,-0.067667,-0.066667,-0.0645,-0.063,-0.060667,-0.0576,-0.0555,-0.053167,-0.0505,-0.047,-0.043,-0.0395,-0.036,-0.034,-0.033,-0.032667,-0.033,-0.034,-0.034667,-0.033333,-0.0315,-0.029,-0.0285,-0.029,-0.031333,-0.031667,-0.031,-0.0315,-0.032333,-0.032,-0.032,-0.030833,-0.0295,-0.029,-0.029,-0.029,-0.029,-0.028667,-0.0265,-0.024333
-0.020333,-0.023333,-0.026,-0.026,-0.025167,-0.024,-0.024333,-0.024333,-0.024,-0.023333,-0.023667,-0.025,-0.027333,-0.030167,-0.032,-0.033333,-0.033167,-0.034,-0.033333,-0.031667,-0.031,-0.030333,-0.031667,-0.033,-0.034333,-0.033833,-0.033,-0.031667,-0.030333,-0.029,-0.029667,-0.031333,-0.032,-0.033333,-0.034333,-0.035,-0.033333,-0.032667,-0.032,-0.032333,-0.033167,-0.034,-0.034333,-0.0345,-0.034,-0.033,-0.0325,-0.032,-0.032,-0.032,-0.032,-0.032,-0.0315,-0.03,-0.03,-0.030167,-0.031,-0.031,-0.030667,-0.03,-0.029333,-0.027667,-0.025,-0.022667,-0.02,-0.018,-0.018667,-0.0185,-0.019,-0.018667,-0.017167,-0.015,-0.013,-0.0091667,-0.006,-0.004,-0.0025,-0.001,0.00033333,0.0018333,0.004,0.0083333,0.013333,0.02,0.028667,0.039,0.0496,0.061333,0.073,0.083,0.091333,0.098,0.103,0.10833,0.11317,0.118,0.124,0.13067,0.136,0.13967,0.1435,0.148,0.15467,0.16167,0.169,0.178,0.18683,0.194,0.201,0.20767,0.214,0.22133,0.22883,0.237,0.24533,0.25283,0.26,0.26633,0.272,0.278,0.28267,0.28733,0.292,0.29733,0.304,0.312,0.32067,0.328,0.334,0.339,0.3435,0.349,0.35433,0.35967,0.364,0.364,0.36183,0.355,0.34467,0.33283,0.323,0.31767,0.31067,0.3,0.29667,0.29517,0.294,0.29667,0.29933,0.304,0.307,0.30383,0.302,0.30333,0.31017,0.321,0.326,0.326,0.319,0.30833,0.29617,0.276,0.26667,0.26367,0.27,0.25067,0.22633,0.201,0.186,0.17467,0.168,0.16467,0.15183,0.13,0.128,0.12883,0.129,0.148,0.15283,0.163,0.15067,0.14133,0.115,0.091,0.0675,0.053,0.046333,0.0405,0.034,0.028,0.024333,0.021,0.023333,0.025667,0.023,0.019333,0.020333,0.022,0.015,0.0088333,0.006,0.0046667,0.0033333,0.002,0.0013333,0.001,0.001,-0.00033333,-0.0025,-0.004,-0.004,-0.0035,-0.0026,-0.001,0.001,0.003,-0.001,-0.0043333,-0.007,-0.009,-0.011,-0.013,-0.014667,-0.015667,-0.015,-0.017,-0.016,-0.016,-0.015333,-0.016333,-0.018,-0.020333,-0.0215,-0.0228,-0.024,-0.025,-0.025,-0.024333,-0.023333,-0.023,-0.021667,-0.022,-0.022,-0.023333,-0.023833,-0.024,-0.023333,-0.021667,-0.019,-0.016667,-0.015167,-0.014,-0.014667,-0.017,-0.0192,-0.022667,-0.025667,-0.029,-0.032333,-0.035167,-0.038,-0.040333,-0.042167,-0.045,-0.046333,-0.048,-0.05,-0.050667,-0.0515,-0.052,-0.053,-0.0545,-0.056,-0.057,-0.0595,-0.061,-0.062667,-0.064,-0.066,-0.067333,-0.0685,-0.0692,-0.07,-0.070167,-0.07,-0.070667,-0.071167,-0.072,-0.073,-0.075667,-0.077,-0.078333,-0.079333,-0.08,-0.080667,-0.081333,-0.082,-0.082,-0.081667,-0.081,-0.081667,-0.082,-0.082,-0.081333,-0.080667,-0.08,-0.078667,-0.078667,-0.078,-0.079,-0.0795,-0.08,-0.080667,-0.0815,-0.082,-0.083,-0.083,-0.083,-0.083,-0.083,-0.084,-0.084,-0.084,-0.084,-0.084667,-0.085,-0.0848,-0.084667,-0.0845,-0.0834,-0.081,-0.079167,-0.077,-0.075667,-0.074,-0.073,-0.071,-0.068,-0.067,-0.063667,-0.061,-0.059,-0.056333,-0.053,-0.0504,-0.048,-0.045167,-0.042,-0.037,-0.034,-0.03,-0.027667,-0.027,-0.027,-0.029333,-0.031333,-0.034,-0.032667,-0.030667,-0.029,-0.028333,-0.029167,-0.032,-0.034333,-0.0335,-0.033,-0.033667,-0.032667,-0.032,-0.031,-0.029667,-0.029,-0.028667,-0.029,-0.029,-0.029,-0.027,-0.025
-0.021,-0.024333,-0.026667,-0.0256,-0.024,-0.023,-0.023,-0.023667,-0.024,-0.024,-0.024167,-0.026,-0.028,-0.030667,-0.032667,-0.034,-0.034,-0.034,-0.034,-0.032667,-0.031667,-0.031,-0.032333,-0.033667,-0.035,-0.033667,-0.033,-0.0318,-0.031,-0.031,-0.031,-0.032833,-0.033,-0.034,-0.034667,-0.035,-0.034,-0.033667,-0.034,-0.033,-0.033667,-0.034333,-0.035,-0.034333,-0.033667,-0.033,-0.032333,-0.032,-0.032,-0.032,-0.032,-0.032,-0.0315,-0.031333,-0.0312,-0.031,-0.031,-0.031,-0.031167,-0.031,-0.03,-0.028167,-0.025,-0.022,-0.019833,-0.018,-0.018,-0.018667,-0.019333,-0.02,-0.019333,-0.017667,-0.015,-0.011,-0.0073333,-0.0044,-0.0025,-0.0016667,-0.0006,0.001,0.0036667,0.007,0.011667,0.017333,0.024,0.032667,0.042667,0.054,0.066667,0.078,0.086,0.093333,0.099667,0.105,0.10967,0.11533,0.122,0.12783,0.133,0.137,0.14167,0.14733,0.156,0.164,0.17367,0.184,0.19267,0.20033,0.207,0.213,0.21933,0.226,0.23383,0.24267,0.252,0.26017,0.26767,0.275,0.28167,0.288,0.2936,0.2985,0.30267,0.308,0.31467,0.322,0.33,0.33717,0.344,0.349,0.35367,0.35833,0.363,0.36833,0.37267,0.3696,0.3645,0.35533,0.344,0.33217,0.32233,0.3186,0.313,0.304,0.3016,0.3015,0.304,0.306,0.30583,0.31,0.311,0.307,0.306,0.312,0.32067,0.32967,0.335,0.33167,0.32433,0.3094,0.294,0.278,0.2588,0.2535,0.26133,0.2448,0.2175,0.19667,0.184,0.1775,0.174,0.164,0.15267,0.14067,0.128,0.13333,0.141,0.154,0.15267,0.14167,0.13,0.12533,0.113,0.093,0.0775,0.070333,0.053,0.041,0.034,0.026,0.025833,0.024,0.026,0.029333,0.026667,0.022,0.022,0.019333,0.014,0.0086667,0.0053333,0.004,0.0025,0.0013333,0.0016,0.002,0.0016667,0.001,-0.0016667,-0.0026667,-0.004,-0.004,-0.003,-0.001,-0.0023333,-0.004,-0.005,-0.0055,-0.006,-0.009,-0.012333,-0.014667,-0.016,-0.016,-0.016,-0.016,-0.018,-0.018667,-0.018,-0.018,-0.019,-0.021,-0.022833,-0.024667,-0.026,-0.026667,-0.026333,-0.026,-0.024667,-0.023667,-0.023,-0.023333,-0.024,-0.025,-0.025,-0.025333,-0.024,-0.022,-0.02,-0.018,-0.017333,-0.017333,-0.018,-0.019333,-0.021333,-0.024,-0.026833,-0.03,-0.033,-0.035667,-0.038333,-0.041,-0.043,-0.044333,-0.046,-0.048,-0.049,-0.05,-0.051333,-0.052,-0.053,-0.054333,-0.055667,-0.057,-0.059,-0.060667,-0.062,-0.064,-0.065333,-0.066,-0.066833,-0.067333,-0.068,-0.068667,-0.068667,-0.069,-0.069667,-0.071,-0.073,-0.075,-0.076333,-0.078,-0.078667,-0.079333,-0.08,-0.080667,-0.080667,-0.0808,-0.0805,-0.080333,-0.081,-0.081333,-0.082,-0.082,-0.081333,-0.080667,-0.08,-0.080167,-0.08,-0.08,-0.08,-0.080667,-0.0808,-0.0815,-0.082333,-0.083,-0.083,-0.083,-0.083,-0.083,-0.083333,-0.0832,-0.0835,-0.084,-0.084,-0.084,-0.084,-0.084,-0.084167,-0.083,-0.081,-0.079667,-0.078,-0.076,-0.074,-0.072333,-0.071,-0.067667,-0.065,-0.061,-0.057667,-0.054333,-0.051,-0.047667,-0.044667,-0.042,-0.038,-0.033667,-0.029,-0.024833,-0.022333,-0.021,-0.021333,-0.023,-0.026,-0.03,-0.033333,-0.0312,-0.029,-0.028333,-0.029,-0.031667,-0.034333,-0.037,-0.035667,-0.035,-0.035,-0.033333,-0.032,-0.031,-0.029667,-0.028667,-0.028,-0.028667,-0.029,-0.029,-0.0275,-0.026
-0.021333,-0.0245,-0.027333,-0.0265,-0.024,-0.022333,-0.022833,-0.024,-0.024333,-0.0245,-0.0245,-0.026333,-0.028667,-0.031,-0.033,-0.033833,-0.0345,-0.035,-0.034167,-0.0334,-0.032,-0.032,-0.0325,-0.033667,-0.034,-0.0335,-0.032667,-0.0315,-0.0318,-0.031333,-0.032667,-0.034,-0.0345,-0.034667,-0.0345,-0.0345,-0.034,-0.034,-0.034,-0.033667,-0.0345,-0.035,-0.035,-0.0345,-0.033667,-0.032333,-0.032,-0.032,-0.032,-0.0326,-0.032333,-0.0325,-0.0326,-0.032333,-0.0325,-0.0324,-0.032333,-0.0325,-0.032,-0.031167,-0.030667,-0.029,-0.025833,-0.022667,-0.02,-0.0195,-0.019333,-0.021,-0.022,-0.022,-0.0205,-0.018,-0.014833,-0.0115,-0.0083333,-0.0055,-0.0034,-0.0023333,-0.0015,0.001,0.003,0.0061667,0.01,0.014333,0.019833,0.0265,0.035333,0.046833,0.0595,0.070833,0.080667,0.0885,0.095667,0.10117,0.107,0.11267,0.11933,0.1245,0.12933,0.13367,0.1395,0.14733,0.157,0.1694,0.17967,0.19083,0.1995,0.20733,0.213,0.2185,0.224,0.23183,0.24,0.24967,0.25933,0.2685,0.27667,0.28433,0.2915,0.29767,0.304,0.3092,0.31367,0.32,0.326,0.33233,0.33917,0.346,0.35217,0.35767,0.363,0.368,0.374,0.3785,0.38133,0.378,0.368,0.35767,0.34283,0.331,0.32233,0.3185,0.313,0.30633,0.3055,0.3122,0.31467,0.31617,0.313,0.31183,0.31233,0.3075,0.31033,0.31967,0.3275,0.33667,0.3415,0.3405,0.333,0.3205,0.3046,0.28567,0.263,0.2524,0.25567,0.241,0.2214,0.19867,0.18667,0.182,0.1775,0.17267,0.165,0.15333,0.148,0.1418,0.147,0.14783,0.137,0.12067,0.11767,0.12,0.10867,0.097667,0.0955,0.084667,0.068,0.0458,0.034333,0.028,0.0335,0.033,0.034667,0.032,0.026,0.021667,0.018,0.014833,0.011333,0.007,0.005,0.004,0.002,0.001,0.001,0.0036,0.0036667,0.0015,-0.0005,-0.002,-0.0031667,-0.0035,-0.0026667,-0.003,-0.004,-0.0056667,-0.007,-0.008,-0.0095,-0.011667,-0.0135,-0.015,-0.015833,-0.0158,-0.015,-0.016167,-0.0175,-0.018667,-0.017833,-0.0185,-0.019667,-0.0215,-0.0235,-0.0255,-0.026667,-0.0275,-0.027,-0.025833,-0.025,-0.024333,-0.024,-0.0245,-0.024833,-0.025667,-0.0265,-0.026167,-0.025,-0.0234,-0.022,-0.020333,-0.02,-0.019667,-0.020667,-0.022,-0.023667,-0.0255,-0.028,-0.030833,-0.033667,-0.0365,-0.038333,-0.040333,-0.0425,-0.043667,-0.0455,-0.0475,-0.049333,-0.050333,-0.0515,-0.052,-0.052833,-0.0535,-0.055,-0.057,-0.0585,-0.060667,-0.062167,-0.0635,-0.064333,-0.065167,-0.065833,-0.066,-0.0665,-0.0665,-0.067333,-0.068333,-0.0696,-0.071,-0.072833,-0.0745,-0.075667,-0.077167,-0.078,-0.078333,-0.078833,-0.0795,-0.079333,-0.0795,-0.0802,-0.08,-0.080333,-0.081,-0.081,-0.081333,-0.081,-0.081167,-0.081333,-0.0815,-0.080667,-0.081333,-0.0815,-0.081667,-0.082,-0.0822,-0.083333,-0.083,-0.083,-0.083333,-0.083,-0.083,-0.083,-0.083,-0.083,-0.083,-0.083333,-0.0835,-0.0835,-0.083333,-0.0832,-0.0825,-0.081333,-0.08,-0.078,-0.076,-0.0744,-0.0725,-0.070333,-0.067,-0.063667,-0.058667,-0.053,-0.049333,-0.044667,-0.041333,-0.0375,-0.033833,-0.0295,-0.024333,-0.018333,-0.015,-0.013333,-0.013667,-0.0155,-0.018833,-0.022667,-0.0285,-0.032667,-0.0305,-0.0302,-0.030333,-0.0325,-0.035,-0.038333,-0.038833,-0.038,-0.036667,-0.035667,-0.0345,-0.032833,-0.031667,-0.0295,-0.028333,-0.028,-0.0285,-0.028833,-0.028333,-0.0275,-0.025667
-0.021,-0.024667,-0.028,-0.026667,-0.024833,-0.023,-0.023333,-0.024667,-0.025,-0.025,-0.025333,-0.026,-0.028667,-0.031,-0.033,-0.034,-0.034333,-0.035,-0.033667,-0.033,-0.0324,-0.032,-0.032833,-0.033,-0.033,-0.032833,-0.032,-0.031,-0.031333,-0.032,-0.033333,-0.034,-0.034,-0.034333,-0.033667,-0.033,-0.033667,-0.033,-0.033,-0.033667,-0.034333,-0.035,-0.035,-0.034333,-0.033,-0.032333,-0.032,-0.032,-0.032667,-0.033,-0.033,-0.033,-0.033,-0.033,-0.033,-0.033,-0.033,-0.033,-0.033,-0.033,-0.031333,-0.0295,-0.026,-0.023667,-0.021667,-0.021,-0.021,-0.022667,-0.024,-0.023333,-0.021333,-0.018,-0.015,-0.012333,-0.009,-0.0063333,-0.0043333,-0.003,-0.0016667,0.00066667,0.003,0.0063333,0.0096667,0.013,0.017333,0.023167,0.03,0.040667,0.052333,0.065,0.075,0.083833,0.091,0.097,0.10333,0.11,0.11533,0.12033,0.125,0.13033,0.13867,0.148,0.16067,0.17367,0.187,0.19867,0.2065,0.214,0.219,0.2245,0.23,0.238,0.24733,0.257,0.26667,0.2765,0.286,0.29333,0.30033,0.307,0.31367,0.31967,0.325,0.33133,0.33767,0.343,0.349,0.355,0.361,0.36667,0.372,0.378,0.384,0.388,0.39,0.386,0.3745,0.361,0.345,0.33217,0.323,0.319,0.313,0.307,0.31233,0.31867,0.326,0.322,0.31717,0.317,0.31067,0.31033,0.315,0.32633,0.335,0.342,0.34633,0.347,0.345,0.337,0.32167,0.299,0.275,0.26067,0.253,0.24067,0.22133,0.206,0.19467,0.18733,0.184,0.18033,0.17667,0.168,0.15733,0.157,0.14567,0.135,0.12417,0.1,0.098667,0.096,0.092,0.092667,0.097167,0.096,0.072,0.053,0.039,0.042333,0.045833,0.049,0.046667,0.036,0.026,0.020667,0.016,0.012,0.0093333,0.0063333,0.005,0.0043333,0.003,0.001,0.003,0.0043333,0.005,0.0016667,-0.00066667,-0.002,-0.0033333,-0.004,-0.004,-0.0053333,-0.0063333,-0.007,-0.009,-0.010667,-0.012,-0.013333,-0.014333,-0.015,-0.016,-0.016,-0.016,-0.016,-0.017,-0.018,-0.018667,-0.0195,-0.021,-0.022,-0.024,-0.0258,-0.027,-0.027667,-0.027,-0.026333,-0.025667,-0.025,-0.024333,-0.025333,-0.026,-0.026667,-0.027,-0.027,-0.025667,-0.024667,-0.024,-0.023333,-0.023,-0.023,-0.023,-0.024333,-0.025,-0.027,-0.029333,-0.032,-0.034667,-0.037,-0.039,-0.04,-0.041667,-0.043,-0.045,-0.046833,-0.049,-0.05,-0.051167,-0.052,-0.052667,-0.053667,-0.055,-0.057,-0.0585,-0.06,-0.061333,-0.062667,-0.063,-0.064,-0.064,-0.0644,-0.065333,-0.065333,-0.066,-0.067333,-0.069,-0.070667,-0.072,-0.073667,-0.075,-0.076333,-0.077,-0.077,-0.077667,-0.078,-0.078,-0.078667,-0.079333,-0.08,-0.08,-0.08,-0.08,-0.081,-0.081333,-0.082,-0.082667,-0.082667,-0.082,-0.082333,-0.083,-0.083,-0.083,-0.083333,-0.084,-0.083333,-0.083667,-0.084,-0.083333,-0.083,-0.083,-0.083,-0.0825,-0.0824,-0.082667,-0.082333,-0.083,-0.082667,-0.0825,-0.0818,-0.081,-0.08,-0.078,-0.076,-0.0745,-0.073,-0.071,-0.067333,-0.063,-0.057,-0.051,-0.046,-0.04,-0.035333,-0.031,-0.027,-0.020667,-0.014,-0.008,-0.0046667,-0.004,-0.0076667,-0.01,-0.014,-0.020667,-0.026667,-0.032,-0.031,-0.031333,-0.035,-0.037667,-0.039667,-0.041,-0.04,-0.039167,-0.038,-0.036,-0.034333,-0.033,-0.031667,-0.030333,-0.029,-0.028,-0.029,-0.029,-0.028333,-0.027,-0.025
-0.021,-0.025,-0.028,-0.027333,-0.026,-0.024667,-0.024,-0.025333,-0.025667,-0.0254,-0.025333,-0.026,-0.028,-0.030667,-0.032667,-0.034,-0.034,-0.033667,-0.033,-0.032333,-0.032,-0.032,-0.032,-0.032,-0.032,-0.031333,-0.031,-0.031,-0.031,-0.032,-0.033333,-0.033667,-0.033,-0.033,-0.032333,-0.032333,-0.033,-0.033,-0.033,-0.033,-0.032833,-0.033,-0.033667,-0.0335,-0.033,-0.033,-0.032667,-0.033,-0.033,-0.033,-0.033,-0.033,-0.033,-0.033,-0.033,-0.033,-0.033,-0.033,-0.033,-0.033,-0.032,-0.029333,-0.027,-0.025,-0.0235,-0.023,-0.023,-0.0235,-0.024,-0.022667,-0.0205,-0.017667,-0.015,-0.013,-0.01,-0.0073333,-0.005,-0.003,-0.00033333,0.002,0.005,0.0082,0.011,0.013,0.016,0.020667,0.026667,0.0356,0.047,0.059,0.069667,0.079,0.086333,0.093,0.099167,0.106,0.11133,0.116,0.121,0.127,0.13833,0.151,0.16433,0.17867,0.194,0.206,0.21267,0.219,0.225,0.23017,0.237,0.245,0.25383,0.264,0.274,0.28417,0.29333,0.302,0.309,0.317,0.32367,0.33,0.33567,0.342,0.348,0.353,0.359,0.36467,0.37,0.376,0.382,0.388,0.394,0.398,0.4,0.394,0.3795,0.36333,0.346,0.33533,0.32633,0.319,0.31267,0.31367,0.3186,0.32333,0.328,0.32067,0.315,0.311,0.306,0.31117,0.323,0.33233,0.3395,0.344,0.349,0.35217,0.357,0.35167,0.339,0.319,0.29767,0.28,0.26467,0.248,0.23617,0.215,0.203,0.19433,0.189,0.187,0.17683,0.169,0.16,0.15,0.14133,0.134,0.11867,0.10333,0.0812,0.076667,0.082,0.096,0.1045,0.096667,0.078,0.059667,0.041,0.050333,0.057,0.06,0.062,0.035833,0.026,0.021333,0.0165,0.012,0.008,0.0058333,0.006,0.0046667,0.003,0.001,0.003,0.0035,0.0016667,0.0002,-0.0013333,-0.002,-0.004,-0.0053333,-0.0053333,-0.0056,-0.0063333,-0.007,-0.0096667,-0.012,-0.014,-0.014,-0.0145,-0.015,-0.016,-0.016667,-0.017,-0.017,-0.017667,-0.018667,-0.0184,-0.0195,-0.020667,-0.022,-0.024667,-0.026333,-0.027,-0.027833,-0.027,-0.026333,-0.025667,-0.025,-0.025,-0.025667,-0.026,-0.026667,-0.027,-0.027,-0.027,-0.026167,-0.026,-0.0252,-0.025,-0.025,-0.025,-0.025667,-0.026333,-0.0282,-0.030333,-0.033,-0.035,-0.037,-0.038667,-0.04,-0.0415,-0.043,-0.044333,-0.046,-0.047667,-0.049,-0.050333,-0.051333,-0.0528,-0.054,-0.055667,-0.057,-0.058333,-0.06,-0.0612,-0.062,-0.062333,-0.063,-0.063,-0.063333,-0.064,-0.065333,-0.066,-0.067,-0.069,-0.070667,-0.072,-0.073333,-0.073667,-0.0746,-0.075333,-0.076,-0.076667,-0.077,-0.077333,-0.0776,-0.078333,-0.079,-0.079,-0.079,-0.079667,-0.081,-0.0815,-0.082,-0.082667,-0.083,-0.083,-0.083,-0.083667,-0.084,-0.084,-0.084,-0.084,-0.084,-0.084,-0.084,-0.0836,-0.083,-0.083,-0.083,-0.082167,-0.082,-0.082,-0.081333,-0.082,-0.082,-0.082167,-0.081667,-0.081,-0.0805,-0.079,-0.077,-0.075667,-0.074,-0.072,-0.068,-0.063667,-0.0566,-0.0495,-0.042667,-0.036,-0.030667,-0.025667,-0.021,-0.015167,-0.006,-1.7738e-16,0.0023333,0.001,-0.003,-0.0078333,-0.012,-0.019333,-0.025667,-0.031,-0.033,-0.036333,-0.038333,-0.0394,-0.041,-0.041,-0.04,-0.039333,-0.038,-0.036,-0.034667,-0.034,-0.032,-0.0305,-0.029333,-0.028,-0.028333,-0.028,-0.027333,-0.0265,-0.025
-0.021167,-0.0245,-0.027167,-0.029,-0.0268,-0.024333,-0.024667,-0.0255,-0.026,-0.026,-0.025333,-0.025667,-0.027333,-0.03,-0.032,-0.032667,-0.033333,-0.0335,-0.033167,-0.0326,-0.032,-0.031833,-0.031167,-0.031,-0.032,-0.032,-0.031333,-0.031,-0.031,-0.031667,-0.0325,-0.032333,-0.032,-0.031667,-0.0316,-0.0315,-0.032333,-0.033,-0.033,-0.033,-0.032,-0.031833,-0.0315,-0.0326,-0.032667,-0.033,-0.033,-0.033,-0.033,-0.033,-0.033,-0.033,-0.033,-0.033,-0.033,-0.0325,-0.0325,-0.0325,-0.0325,-0.032167,-0.031333,-0.0294,-0.0275,-0.026333,-0.0255,-0.025,-0.025,-0.0245,-0.023333,-0.0215,-0.0196,-0.016667,-0.015,-0.013,-0.010667,-0.008,-0.0046667,-0.002,0.001,0.0044,0.0073333,0.01,0.012,0.013667,0.016,0.0195,0.024667,0.0325,0.044,0.054333,0.064,0.0728,0.081333,0.089,0.095,0.10017,0.105,0.111,0.11667,0.12467,0.136,0.15033,0.167,0.182,0.197,0.21067,0.218,0.22467,0.23033,0.23633,0.2435,0.251,0.26,0.27,0.28,0.291,0.3005,0.30933,0.317,0.32467,0.3325,0.3392,0.34567,0.352,0.3575,0.363,0.369,0.375,0.381,0.38667,0.3916,0.3975,0.4035,0.4065,0.4045,0.39933,0.383,0.365,0.34917,0.3375,0.328,0.31967,0.3185,0.32067,0.3255,0.32767,0.325,0.32,0.3088,0.30467,0.30283,0.3135,0.327,0.339,0.343,0.34667,0.35083,0.354,0.35617,0.356,0.34583,0.33317,0.3205,0.3016,0.28383,0.262,0.2505,0.23267,0.213,0.20433,0.19167,0.18433,0.1725,0.15733,0.144,0.141,0.14,0.14167,0.138,0.11567,0.089,0.087333,0.089667,0.105,0.0968,0.091,0.0715,0.055167,0.0455,0.041,0.0598,0.066,0.055333,0.0375,0.021,0.0185,0.0156,0.012167,0.008,0.0075,0.007,0.005,0.0028333,0.0025,0.0005,0.0004,-0.00033333,-0.0015,-0.0028333,-0.0038333,-0.0046667,-0.0055,-0.0056667,-0.006,-0.0068333,-0.0085,-0.01,-0.012,-0.013333,-0.014,-0.0145,-0.015333,-0.016,-0.017,-0.0175,-0.017667,-0.0185,-0.018667,-0.018,-0.0188,-0.020167,-0.022667,-0.024,-0.026,-0.027,-0.027,-0.027167,-0.027,-0.026333,-0.026333,-0.026333,-0.0265,-0.0265,-0.026,-0.0265,-0.026833,-0.027,-0.0275,-0.027333,-0.027,-0.026833,-0.0265,-0.026333,-0.027,-0.027667,-0.0295,-0.031333,-0.033,-0.0355,-0.037,-0.039,-0.04,-0.0415,-0.042667,-0.044,-0.0454,-0.047,-0.049,-0.05,-0.051,-0.0525,-0.0542,-0.055333,-0.057,-0.058,-0.059667,-0.0605,-0.0612,-0.061667,-0.062333,-0.063,-0.063,-0.064,-0.065,-0.066667,-0.067667,-0.069,-0.070667,-0.071167,-0.072,-0.072333,-0.073,-0.073667,-0.074333,-0.075,-0.0756,-0.076333,-0.0765,-0.077167,-0.077833,-0.0785,-0.079,-0.079667,-0.080333,-0.0815,-0.082333,-0.083,-0.083,-0.083,-0.083667,-0.084,-0.084,-0.0845,-0.085,-0.085,-0.084667,-0.085,-0.084333,-0.084,-0.083333,-0.082667,-0.082333,-0.0815,-0.081,-0.081333,-0.081,-0.081333,-0.082,-0.082,-0.082,-0.081667,-0.0805,-0.079667,-0.078333,-0.0765,-0.075333,-0.072667,-0.0695,-0.064667,-0.0575,-0.049,-0.041333,-0.034667,-0.0292,-0.024,-0.018833,-0.013,-0.0055,0.0015,0.003,0.0013333,-0.0043333,-0.0075,-0.013,-0.019,-0.026,-0.031,-0.034333,-0.0375,-0.040333,-0.0405,-0.0405,-0.0405,-0.040667,-0.04,-0.038333,-0.0365,-0.035167,-0.033833,-0.0325,-0.0306,-0.029,-0.028,-0.0275,-0.027167,-0.0265,-0.0252,-0.024333
-0.020667,-0.024667,-0.028,-0.028,-0.027,-0.025,-0.025,-0.025833,-0.027,-0.026333,-0.025667,-0.025,-0.027,-0.0295,-0.031667,-0.033,-0.033,-0.033,-0.033,-0.0325,-0.032,-0.032,-0.032,-0.0318,-0.032333,-0.032,-0.032,-0.031333,-0.031,-0.031,-0.031,-0.031,-0.031,-0.030333,-0.0305,-0.0312,-0.032,-0.033,-0.033,-0.032333,-0.031333,-0.03,-0.03,-0.030667,-0.032,-0.032667,-0.032667,-0.032,-0.032,-0.032,-0.032,-0.032667,-0.033,-0.033,-0.032333,-0.032,-0.032,-0.032,-0.031667,-0.031,-0.030333,-0.0295,-0.0284,-0.027333,-0.027,-0.027,-0.026333,-0.025,-0.023,-0.021,-0.018667,-0.016,-0.014667,-0.013,-0.011,-0.0076667,-0.004,3.7192e-17,0.0033333,0.0066667,0.01,0.012,0.013667,0.015,0.017,0.02,0.024,0.031333,0.039667,0.049,0.058333,0.067333,0.076,0.083333,0.089333,0.094,0.099333,0.10533,0.112,0.12133,0.13433,0.151,0.16767,0.18483,0.202,0.214,0.2235,0.23,0.236,0.24267,0.2498,0.257,0.266,0.276,0.28567,0.2965,0.307,0.31633,0.32533,0.334,0.34133,0.34833,0.355,0.361,0.36783,0.373,0.37967,0.386,0.393,0.39833,0.4025,0.4058,0.411,0.413,0.413,0.40333,0.388,0.36933,0.35,0.338,0.328,0.32,0.32167,0.327,0.32767,0.32733,0.326,0.316,0.30667,0.298,0.30533,0.31817,0.335,0.34167,0.34683,0.35,0.35333,0.35533,0.356,0.35433,0.34933,0.342,0.334,0.318,0.294,0.27467,0.264,0.246,0.223,0.20833,0.191,0.17767,0.16167,0.143,0.135,0.13383,0.14,0.15067,0.15117,0.137,0.115,0.102,0.11,0.11133,0.097667,0.069,0.055667,0.043,0.031,0.035333,0.046,0.056,0.042667,0.021333,0.016,0.014667,0.012667,0.01,0.009,0.0096667,0.009,0.007,0.005,0.003,0.001,-0.00033333,-0.001,-0.0023333,-0.0033333,-0.004,-0.0046667,-0.005,-0.005,-0.0056667,-0.0071667,-0.009,-0.010333,-0.011667,-0.013,-0.013667,-0.014333,-0.015,-0.016333,-0.017,-0.017,-0.017667,-0.018,-0.018,-0.018,-0.019,-0.021,-0.022667,-0.0245,-0.0254,-0.026333,-0.026167,-0.027,-0.026333,-0.026,-0.026,-0.026667,-0.026667,-0.026,-0.026,-0.026,-0.026,-0.026667,-0.027333,-0.028,-0.028,-0.028,-0.028,-0.027667,-0.028333,-0.029,-0.030333,-0.032,-0.034,-0.036,-0.037667,-0.039,-0.040333,-0.041333,-0.042,-0.043333,-0.045,-0.047,-0.048333,-0.0495,-0.051,-0.052333,-0.053667,-0.055,-0.056667,-0.057667,-0.059,-0.059667,-0.060333,-0.061,-0.062,-0.062333,-0.063,-0.063667,-0.064667,-0.066,-0.068,-0.069333,-0.07,-0.071,-0.070833,-0.071,-0.071667,-0.072333,-0.073,-0.073667,-0.074333,-0.075,-0.075667,-0.076333,-0.077,-0.077667,-0.078333,-0.079,-0.080333,-0.081333,-0.082,-0.082667,-0.083,-0.083,-0.083667,-0.084,-0.084,-0.084,-0.084,-0.084,-0.084667,-0.084833,-0.085,-0.084333,-0.083667,-0.083,-0.082,-0.081667,-0.081,-0.081,-0.081,-0.081,-0.081667,-0.082,-0.082,-0.082,-0.081333,-0.08,-0.078667,-0.077333,-0.076,-0.073333,-0.070333,-0.066,-0.058667,-0.050667,-0.042,-0.036,-0.031,-0.0274,-0.023,-0.016667,-0.01,-0.005,-0.003,-0.005,-0.009,-0.012667,-0.016,-0.022,-0.027333,-0.032,-0.036,-0.039167,-0.041,-0.041667,-0.042,-0.042,-0.042,-0.041167,-0.039,-0.037,-0.035333,-0.034,-0.032667,-0.031,-0.029,-0.027667,-0.026667,-0.026,-0.025333,-0.024333,-0.023
-0.02,-0.024167,-0.027333,-0.028,-0.027,-0.025667,-0.026,-0.026667,-0.027667,-0.027,-0.026667,-0.026,-0.027,-0.030167,-0.031667,-0.033,-0.033,-0.033,-0.033,-0.0325,-0.032,-0.032,-0.032,-0.032333,-0.033,-0.032833,-0.032667,-0.032,-0.031333,-0.031667,-0.031,-0.031,-0.031,-0.03,-0.030833,-0.031333,-0.032,-0.032667,-0.033,-0.032,-0.029833,-0.028667,-0.028,-0.029333,-0.030667,-0.032,-0.031667,-0.031,-0.031,-0.031167,-0.031333,-0.0316,-0.032,-0.031667,-0.032,-0.032,-0.032,-0.031,-0.0315,-0.031,-0.03,-0.0295,-0.028667,-0.028,-0.027833,-0.027,-0.026,-0.024667,-0.022333,-0.02,-0.018167,-0.016667,-0.015,-0.013,-0.011,-0.008,-0.0031667,0.0013333,0.0044,0.0075,0.01,0.012,0.014,0.015,0.017,0.0195,0.023333,0.0288,0.036,0.044,0.053,0.061667,0.07,0.078,0.082667,0.088,0.093,0.10033,0.108,0.118,0.133,0.151,0.16967,0.188,0.20667,0.22,0.229,0.23667,0.242,0.24867,0.25567,0.263,0.27233,0.28133,0.291,0.30167,0.31233,0.323,0.33317,0.342,0.3504,0.3575,0.36433,0.37,0.37733,0.38433,0.391,0.39733,0.403,0.409,0.41217,0.415,0.417,0.417,0.41367,0.406,0.39017,0.37333,0.356,0.34,0.328,0.32,0.3215,0.325,0.3306,0.331,0.329,0.32,0.30483,0.299,0.307,0.32517,0.33967,0.347,0.35017,0.35267,0.355,0.35517,0.355,0.353,0.3485,0.342,0.3372,0.3255,0.30133,0.286,0.27517,0.25133,0.227,0.1995,0.182,0.166,0.16317,0.149,0.14,0.1385,0.14467,0.16,0.16083,0.14767,0.136,0.12267,0.11733,0.106,0.075667,0.052333,0.0442,0.034,0.026,0.028,0.033333,0.031,0.024,0.018167,0.014,0.012,0.011833,0.011,0.011,0.0095,0.008,0.006,0.0046667,0.0016667,0.0006,-0.0005,-0.001,-0.002,-0.0026667,-0.0033333,-0.004,-0.0046667,-0.005,-0.0062,-0.008,-0.009,-0.01,-0.0115,-0.012,-0.013,-0.013833,-0.015,-0.016,-0.016667,-0.017,-0.017,-0.017167,-0.018,-0.018,-0.019,-0.020667,-0.022,-0.023333,-0.024333,-0.025,-0.025,-0.025,-0.025,-0.025667,-0.025333,-0.026,-0.025667,-0.025,-0.024333,-0.024,-0.024667,-0.0256,-0.0265,-0.027333,-0.029,-0.028833,-0.029,-0.029,-0.029667,-0.030333,-0.0314,-0.032667,-0.034,-0.036,-0.0375,-0.039,-0.04,-0.040667,-0.042,-0.043,-0.045,-0.046333,-0.048,-0.049333,-0.050333,-0.0514,-0.053,-0.054667,-0.056,-0.0575,-0.059,-0.0598,-0.0605,-0.061333,-0.062,-0.062,-0.062333,-0.063,-0.0645,-0.066,-0.067,-0.068667,-0.069333,-0.07,-0.07,-0.070333,-0.071,-0.070833,-0.071667,-0.072,-0.072667,-0.073667,-0.0746,-0.075333,-0.076,-0.077,-0.077833,-0.079,-0.08,-0.080667,-0.081333,-0.082,-0.082667,-0.083,-0.084,-0.083333,-0.084,-0.084,-0.084,-0.083333,-0.084,-0.084,-0.084333,-0.084,-0.0835,-0.082667,-0.082,-0.0815,-0.081,-0.081,-0.081,-0.081,-0.081,-0.082,-0.082667,-0.083,-0.0815,-0.081,-0.079,-0.0775,-0.076,-0.074,-0.071333,-0.068,-0.0616,-0.054,-0.046667,-0.041,-0.037,-0.033667,-0.031,-0.0265,-0.020333,-0.015,-0.013167,-0.015,-0.018,-0.021333,-0.023,-0.025,-0.0285,-0.033333,-0.0372,-0.04,-0.041667,-0.043,-0.043333,-0.043333,-0.043,-0.041667,-0.040333,-0.0382,-0.036,-0.034,-0.032,-0.030333,-0.029,-0.027,-0.025667,-0.024667,-0.024,-0.0225,-0.021
-0.02,-0.0235,-0.0265,-0.028,-0.028,-0.026667,-0.0265,-0.027,-0.028,-0.027667,-0.028,-0.028333,-0.029,-0.031,-0.032833,-0.033667,-0.033,-0.033,-0.033,-0.0328,-0.032,-0.032,-0.032,-0.032,-0.032167,-0.0325,-0.0325,-0.032,-0.032,-0.032,-0.031667,-0.031,-0.031,-0.030667,-0.031,-0.031,-0.032,-0.032,-0.032333,-0.031333,-0.029,-0.027667,-0.026667,-0.027,-0.028333,-0.029333,-0.03,-0.030333,-0.030333,-0.0305,-0.0305,-0.0305,-0.0306,-0.030667,-0.031333,-0.032,-0.032,-0.031667,-0.032,-0.031333,-0.030667,-0.0298,-0.029,-0.028667,-0.0275,-0.026667,-0.025333,-0.024,-0.022,-0.02,-0.0185,-0.017167,-0.015667,-0.0135,-0.010833,-0.008,-0.003,0.0011667,0.004,0.0064,0.009,0.010667,0.0135,0.015167,0.017667,0.0195,0.023,0.0275,0.034,0.040333,0.048333,0.056,0.063333,0.070667,0.077,0.0825,0.088333,0.096,0.10367,0.11467,0.131,0.15,0.17,0.1924,0.21233,0.2275,0.2356,0.24333,0.25,0.25633,0.263,0.27033,0.2785,0.28733,0.297,0.3072,0.318,0.32967,0.3405,0.34967,0.3585,0.3662,0.37333,0.38117,0.388,0.39533,0.40167,0.407,0.41233,0.41633,0.4174,0.419,0.419,0.417,0.41217,0.40267,0.3908,0.375,0.3575,0.3395,0.325,0.3205,0.32,0.32467,0.3325,0.3345,0.3295,0.31933,0.301,0.30317,0.31233,0.3295,0.34267,0.34833,0.352,0.354,0.355,0.3545,0.35233,0.34967,0.345,0.33967,0.3345,0.3216,0.30533,0.29067,0.275,0.2505,0.219,0.191,0.1745,0.16133,0.1585,0.15333,0.142,0.1435,0.146,0.15467,0.162,0.1555,0.142,0.125,0.1135,0.091333,0.064,0.042833,0.0345,0.0295,0.026167,0.023333,0.027,0.027333,0.024,0.0165,0.012667,0.011333,0.012,0.010167,0.0083333,0.0075,0.006,0.0033333,0.003,0.0011667,0.001,0.0006,-0.00016667,-0.00066667,-0.002,-0.003,-0.0038333,-0.004,-0.0048333,-0.006,-0.008,-0.009,-0.010167,-0.0115,-0.012333,-0.013,-0.0135,-0.014333,-0.015333,-0.016,-0.016667,-0.017,-0.017,-0.017667,-0.018,-0.018917,-0.02,-0.020667,-0.0215,-0.022,-0.022333,-0.023,-0.023,-0.023833,-0.024,-0.024,-0.024,-0.024,-0.023667,-0.0235,-0.0228,-0.023333,-0.0245,-0.0258,-0.026667,-0.027667,-0.029,-0.029167,-0.029667,-0.0305,-0.031333,-0.0325,-0.033167,-0.034167,-0.036,-0.0375,-0.038667,-0.04,-0.0405,-0.042,-0.043167,-0.0445,-0.045833,-0.047333,-0.048,-0.049667,-0.051,-0.0524,-0.053833,-0.055333,-0.057,-0.058333,-0.0595,-0.06,-0.060667,-0.061333,-0.0615,-0.061667,-0.062333,-0.064,-0.065,-0.066667,-0.067833,-0.069,-0.069333,-0.07,-0.07,-0.0695,-0.0695,-0.070167,-0.070667,-0.072,-0.072667,-0.0735,-0.074167,-0.075167,-0.076333,-0.0775,-0.078333,-0.079333,-0.08,-0.080667,-0.081333,-0.082,-0.082667,-0.083333,-0.083,-0.083,-0.083,-0.0832,-0.083,-0.0835,-0.084,-0.084,-0.084,-0.084,-0.083833,-0.082667,-0.082,-0.081333,-0.081,-0.081,-0.081,-0.081,-0.0825,-0.082833,-0.082333,-0.0815,-0.080667,-0.079667,-0.078,-0.076667,-0.075333,-0.073,-0.069667,-0.064,-0.0575,-0.052,-0.048,-0.0455,-0.042,-0.039667,-0.0374,-0.031,-0.027,-0.0235,-0.024667,-0.027333,-0.0295,-0.0305,-0.0285,-0.0298,-0.034167,-0.0385,-0.0406,-0.042333,-0.043333,-0.044,-0.0445,-0.044333,-0.043,-0.041667,-0.04,-0.037833,-0.035167,-0.032667,-0.0305,-0.028167,-0.026333,-0.025,-0.0235,-0.022,-0.02,-0.018667
-0.019667,-0.023,-0.027,-0.027667,-0.028,-0.028,-0.028,-0.028,-0.028,-0.028667,-0.029,-0.029,-0.030333,-0.031667,-0.033,-0.033667,-0.033667,-0.033,-0.033,-0.033,-0.032667,-0.032,-0.031667,-0.032,-0.032,-0.031333,-0.031,-0.031667,-0.032,-0.032,-0.032,-0.032,-0.032,-0.032,-0.0315,-0.0312,-0.032,-0.032,-0.032,-0.03,-0.028,-0.026,-0.024667,-0.024333,-0.025,-0.025667,-0.026667,-0.028,-0.028667,-0.029,-0.029,-0.029,-0.029333,-0.03,-0.030667,-0.031333,-0.032,-0.032,-0.032,-0.032,-0.031333,-0.0305,-0.0294,-0.029,-0.027333,-0.026,-0.024667,-0.023333,-0.022,-0.020667,-0.019,-0.017,-0.015667,-0.013667,-0.011,-0.0076667,-0.0043333,-0.001,0.0016667,0.0043333,0.007,0.0096667,0.012667,0.016,0.018,0.020333,0.023,0.027,0.031667,0.037,0.043667,0.050333,0.057,0.063667,0.070333,0.077,0.083667,0.090833,0.099,0.11233,0.12867,0.148,0.17133,0.195,0.219,0.23233,0.24267,0.25,0.258,0.26467,0.2712,0.278,0.286,0.294,0.30267,0.3125,0.3236,0.33533,0.34633,0.357,0.36567,0.37367,0.382,0.391,0.39883,0.406,0.412,0.41683,0.421,0.42233,0.4225,0.4202,0.419,0.415,0.409,0.39833,0.3865,0.37333,0.358,0.34,0.325,0.319,0.32217,0.328,0.33667,0.33967,0.337,0.313,0.29967,0.297,0.31633,0.3325,0.344,0.34867,0.352,0.354,0.35333,0.352,0.35,0.34533,0.34033,0.335,0.32633,0.31467,0.3,0.28733,0.26967,0.243,0.211,0.18433,0.163,0.15633,0.15033,0.145,0.139,0.13867,0.144,0.14867,0.1525,0.1526,0.143,0.122,0.106,0.079333,0.056,0.036,0.029333,0.023667,0.019,0.022333,0.025333,0.028,0.022667,0.016333,0.011,0.011667,0.011333,0.01,0.0063333,0.005,0.003,0.0016667,0.0013333,0.002,0.0026667,0.0023333,0.001,-0.00033333,-0.0015,-0.003,-0.0036667,-0.0043333,-0.005,-0.0063333,-0.0076667,-0.009,-0.010333,-0.011333,-0.012,-0.012667,-0.013333,-0.014,-0.014667,-0.015333,-0.016,-0.016667,-0.017,-0.017,-0.017,-0.0175,-0.018333,-0.019,-0.019833,-0.02,-0.02,-0.0205,-0.0212,-0.022,-0.022333,-0.023,-0.023,-0.023,-0.023,-0.022333,-0.022,-0.022,-0.023333,-0.024333,-0.025,-0.026333,-0.027333,-0.028,-0.029667,-0.030667,-0.032,-0.032667,-0.033667,-0.035,-0.036333,-0.037667,-0.039,-0.039667,-0.0405,-0.042,-0.042667,-0.043667,-0.045,-0.046333,-0.047667,-0.049,-0.050333,-0.051667,-0.053,-0.054333,-0.056,-0.058,-0.058667,-0.059333,-0.06,-0.060667,-0.061,-0.061,-0.061667,-0.062667,-0.064,-0.066,-0.067333,-0.0686,-0.069,-0.069833,-0.07,-0.069,-0.068667,-0.069,-0.069667,-0.070333,-0.071,-0.071667,-0.072667,-0.074,-0.075333,-0.076667,-0.078,-0.078,-0.078667,-0.08,-0.080667,-0.081333,-0.082,-0.082667,-0.083,-0.083,-0.082333,-0.082,-0.082,-0.082667,-0.083333,-0.084,-0.084,-0.084,-0.084,-0.083333,-0.082667,-0.082,-0.081333,-0.080667,-0.08,-0.081333,-0.082,-0.082,-0.082,-0.081667,-0.081,-0.079667,-0.078667,-0.078,-0.076667,-0.074333,-0.071,-0.066333,-0.062,-0.057667,-0.053,-0.0505,-0.048,-0.045333,-0.0445,-0.0416,-0.036667,-0.034667,-0.032,-0.034667,-0.035,-0.033,-0.031,-0.031667,-0.035,-0.038333,-0.041,-0.043,-0.044333,-0.045333,-0.046,-0.045333,-0.044333,-0.043,-0.041,-0.038667,-0.036,-0.033333,-0.031,-0.029,-0.026333,-0.024,-0.022,-0.019667,-0.018,-0.016
-0.019,-0.022167,-0.026333,-0.028,-0.028,-0.028,-0.028,-0.028667,-0.029,-0.029667,-0.03,-0.029667,-0.031,-0.032167,-0.033,-0.034,-0.0335,-0.033,-0.033,-0.0325,-0.032,-0.032,-0.031333,-0.030667,-0.03,-0.03,-0.029667,-0.03,-0.0305,-0.031333,-0.032,-0.032,-0.032,-0.032,-0.032,-0.032,-0.032,-0.0315,-0.030667,-0.029,-0.026833,-0.025333,-0.024,-0.0235,-0.023667,-0.024,-0.025333,-0.026,-0.0264,-0.027,-0.027,-0.027667,-0.0285,-0.029333,-0.03,-0.030667,-0.031333,-0.032,-0.031167,-0.030667,-0.03,-0.029833,-0.029667,-0.029,-0.027833,-0.026667,-0.025,-0.023833,-0.022667,-0.022,-0.019833,-0.017667,-0.016,-0.014,-0.011,-0.0094,-0.0066667,-0.004,-0.0013333,0.0015,0.0043333,0.008,0.012167,0.015333,0.018,0.019667,0.022333,0.025,0.029,0.033,0.038333,0.044333,0.051,0.058,0.0645,0.070333,0.077,0.084167,0.091667,0.105,0.12417,0.145,0.17233,0.19833,0.223,0.23767,0.249,0.25667,0.265,0.27233,0.27933,0.286,0.29267,0.3,0.308,0.31767,0.32867,0.34,0.35067,0.361,0.371,0.38,0.38867,0.399,0.40833,0.41533,0.421,0.42417,0.42633,0.427,0.424,0.421,0.417,0.41133,0.40367,0.393,0.38,0.36733,0.354,0.33867,0.32567,0.321,0.32633,0.33133,0.3384,0.33933,0.332,0.306,0.29533,0.3,0.318,0.3325,0.342,0.348,0.35,0.35133,0.351,0.34717,0.34267,0.338,0.332,0.324,0.31267,0.301,0.28733,0.276,0.25867,0.23033,0.1974,0.17233,0.153,0.14567,0.13933,0.134,0.134,0.133,0.131,0.135,0.13733,0.139,0.139,0.11767,0.10067,0.0792,0.056,0.036,0.026,0.02,0.018,0.02,0.022333,0.025,0.02,0.013833,0.011,0.011,0.0098333,0.0076667,0.005,0.003,0.0016667,0.0014,0.0016667,0.003,0.003,0.002,0.001,4.4409e-17,-0.0013333,-0.003,-0.003,-0.004,-0.005,-0.006,-0.0075,-0.009,-0.0096667,-0.010667,-0.012,-0.012,-0.013,-0.013,-0.013667,-0.014667,-0.016,-0.016,-0.016,-0.016,-0.017,-0.0175,-0.018,-0.018,-0.018667,-0.019333,-0.019,-0.019,-0.019333,-0.02,-0.020833,-0.021,-0.0218,-0.022,-0.022,-0.021333,-0.021333,-0.022,-0.022667,-0.023,-0.023667,-0.025,-0.026333,-0.027667,-0.029,-0.031,-0.032667,-0.0336,-0.034667,-0.036,-0.036667,-0.037667,-0.039,-0.039,-0.040333,-0.041333,-0.042,-0.0435,-0.045,-0.045667,-0.046667,-0.048,-0.049333,-0.050667,-0.052,-0.054,-0.0555,-0.057333,-0.0584,-0.059333,-0.06,-0.06,-0.06,-0.06,-0.060667,-0.0615,-0.063333,-0.065,-0.067,-0.068333,-0.069,-0.069,-0.069333,-0.069,-0.068333,-0.068333,-0.068,-0.068667,-0.07,-0.070667,-0.071333,-0.072,-0.074,-0.075333,-0.076,-0.077,-0.077333,-0.078667,-0.08,-0.080667,-0.081333,-0.082,-0.082333,-0.082,-0.082,-0.082,-0.082,-0.082,-0.0825,-0.082667,-0.083,-0.083667,-0.083333,-0.0832,-0.082667,-0.082,-0.080667,-0.08,-0.08,-0.080667,-0.081333,-0.082,-0.082,-0.081333,-0.081,-0.080333,-0.079333,-0.078,-0.077333,-0.075333,-0.072,-0.069,-0.063167,-0.059667,-0.057,-0.055,-0.053333,-0.052,-0.05,-0.048,-0.044,-0.037667,-0.036667,-0.0368,-0.036667,-0.036,-0.034,-0.033667,-0.035,-0.038333,-0.041,-0.043,-0.044,-0.0455,-0.046,-0.046,-0.045333,-0.043667,-0.0418,-0.039667,-0.037,-0.033667,-0.031,-0.029,-0.026,-0.023167,-0.020333,-0.017,-0.013,-0.011
-0.018667,-0.022,-0.026,-0.027333,-0.028,-0.028,-0.028,-0.0285,-0.029333,-0.03,-0.0306,-0.0305,-0.031,-0.0325,-0.033333,-0.034,-0.0335,-0.033,-0.0325,-0.032167,-0.032,-0.031333,-0.030667,-0.03,-0.029167,-0.0285,-0.028333,-0.0285,-0.029167,-0.0305,-0.031333,-0.032,-0.0325,-0.0325,-0.0325,-0.032,-0.031833,-0.030833,-0.0295,-0.027667,-0.0266,-0.0255,-0.024833,-0.024167,-0.023,-0.0235,-0.024,-0.024333,-0.024,-0.024667,-0.025333,-0.0265,-0.0284,-0.029333,-0.029667,-0.030333,-0.0305,-0.030333,-0.029667,-0.029,-0.0285,-0.0285,-0.029,-0.029,-0.028333,-0.0275,-0.025667,-0.0252,-0.024,-0.0225,-0.0205,-0.018,-0.016,-0.014,-0.0115,-0.01,-0.0075,-0.0055,-0.0035,-0.0006,0.0023333,0.0066667,0.010667,0.0145,0.016667,0.0185,0.021167,0.0235,0.027333,0.031333,0.0355,0.040667,0.045667,0.052,0.0572,0.063,0.069667,0.076667,0.0845,0.098333,0.1195,0.14267,0.167,0.19583,0.22117,0.2405,0.2526,0.262,0.2715,0.27917,0.2865,0.293,0.29933,0.3055,0.3135,0.32283,0.3325,0.34333,0.354,0.364,0.374,0.3844,0.39367,0.405,0.4144,0.4225,0.42617,0.4285,0.4285,0.42633,0.423,0.418,0.41317,0.4065,0.3975,0.38567,0.3738,0.3625,0.34917,0.3375,0.3285,0.3275,0.3295,0.3345,0.3385,0.33717,0.3265,0.3055,0.29183,0.29617,0.31733,0.3282,0.338,0.3425,0.34517,0.3445,0.34133,0.3365,0.33183,0.327,0.31917,0.31017,0.297,0.287,0.275,0.26017,0.2425,0.215,0.18,0.1555,0.14117,0.1355,0.13317,0.13017,0.1305,0.12867,0.11833,0.111,0.123,0.1315,0.124,0.1115,0.091833,0.071,0.051,0.036333,0.028,0.022667,0.019667,0.0175,0.0185,0.018167,0.017333,0.0134,0.0115,0.010167,0.0071667,0.005,0.0033333,0.002,0.001,0.001,0.001,0.0016667,0.0025,0.0024,0.0013333,-0.00033333,-0.0016667,-0.003,-0.0036667,-0.0043333,-0.0055,-0.0066667,-0.0075,-0.0086667,-0.01,-0.010667,-0.011333,-0.012,-0.0135,-0.013833,-0.0145,-0.015,-0.015333,-0.016,-0.016167,-0.0165,-0.017,-0.0175,-0.018,-0.018,-0.019,-0.019,-0.0185,-0.0185,-0.018,-0.018667,-0.0195,-0.019667,-0.0205,-0.0205,-0.0205,-0.021,-0.021,-0.021333,-0.022,-0.0222,-0.022667,-0.023833,-0.025167,-0.0265,-0.0285,-0.0305,-0.0325,-0.034,-0.035333,-0.036333,-0.037,-0.037833,-0.038833,-0.039667,-0.0404,-0.041,-0.042167,-0.0435,-0.044667,-0.0455,-0.046333,-0.047667,-0.0485,-0.049833,-0.0515,-0.0535,-0.0548,-0.056333,-0.0575,-0.058167,-0.0585,-0.0585,-0.0585,-0.0585,-0.059,-0.0606,-0.062333,-0.064,-0.066,-0.067333,-0.068333,-0.069,-0.069,-0.068333,-0.068,-0.0675,-0.067333,-0.0675,-0.068167,-0.0695,-0.070167,-0.071167,-0.072,-0.073333,-0.074333,-0.075,-0.076,-0.0775,-0.078667,-0.079333,-0.0805,-0.080667,-0.0815,-0.081167,-0.0805,-0.080667,-0.081333,-0.082,-0.082,-0.082,-0.082667,-0.083,-0.083167,-0.0835,-0.083333,-0.082333,-0.081,-0.080333,-0.08,-0.08,-0.0805,-0.080833,-0.081333,-0.081,-0.081,-0.081,-0.079833,-0.079167,-0.078,-0.076,-0.073,-0.069,-0.0645,-0.061833,-0.062333,-0.0605,-0.057667,-0.055,-0.053,-0.0505,-0.044667,-0.041,-0.040167,-0.0405,-0.039667,-0.038,-0.037,-0.036833,-0.037833,-0.0395,-0.041,-0.043,-0.043833,-0.044833,-0.0455,-0.0455,-0.0455,-0.044,-0.0425,-0.040333,-0.037333,-0.0345,-0.031667,-0.028333,-0.025333,-0.0206,-0.017,-0.012333,-0.0085,-0.0055
-0.018,-0.022,-0.025333,-0.028,-0.028,-0.028,-0.028,-0.029333,-0.03,-0.03,-0.030333,-0.031,-0.031667,-0.032333,-0.033,-0.033667,-0.033667,-0.033,-0.032,-0.031333,-0.031,-0.031,-0.030333,-0.029667,-0.029,-0.028,-0.027,-0.027,-0.028333,-0.03,-0.032,-0.032667,-0.033,-0.033,-0.032333,-0.031667,-0.031,-0.029667,-0.0284,-0.026667,-0.026,-0.026,-0.026,-0.024667,-0.023667,-0.023,-0.023167,-0.023,-0.022333,-0.022667,-0.024,-0.026667,-0.028667,-0.03,-0.03,-0.03,-0.029667,-0.029,-0.028333,-0.027667,-0.027,-0.027667,-0.028333,-0.029,-0.028333,-0.0282,-0.027,-0.0265,-0.025,-0.023,-0.021,-0.018667,-0.016,-0.014,-0.012,-0.01,-0.008,-0.006,-0.004,-0.0016667,0.001,0.004,0.008,0.011667,0.015,0.017833,0.02,0.022,0.024667,0.028,0.032,0.036333,0.041,0.045667,0.0505,0.055667,0.061,0.068333,0.0784,0.092,0.11433,0.135,0.16433,0.19417,0.221,0.23833,0.2535,0.266,0.277,0.28567,0.29333,0.3,0.30533,0.31133,0.318,0.32667,0.3356,0.346,0.356,0.366,0.376,0.3865,0.397,0.40833,0.4185,0.425,0.429,0.42833,0.42667,0.424,0.41933,0.414,0.408,0.4,0.39,0.378,0.3655,0.356,0.348,0.33933,0.33467,0.334,0.33567,0.338,0.33967,0.33767,0.329,0.30033,0.28333,0.294,0.31267,0.325,0.32967,0.333,0.333,0.33067,0.326,0.3245,0.316,0.31433,0.30433,0.293,0.28233,0.273,0.263,0.246,0.228,0.196,0.17033,0.14533,0.136,0.132,0.12933,0.127,0.12567,0.11933,0.097,0.093,0.0985,0.109,0.115,0.0975,0.075,0.053,0.038333,0.031,0.029,0.023,0.019,0.017,0.017,0.017,0.016,0.014,0.011667,0.009,0.0056667,0.0036667,0.003,0.003,0.001,0.001,0.0013333,0.002,0.0023333,0.0026667,0.002,8.8818e-17,-0.0013333,-0.0026667,-0.004,-0.0046667,-0.006,-0.0073333,-0.0076667,-0.009,-0.010333,-0.011333,-0.012,-0.012667,-0.013333,-0.014,-0.014667,-0.015333,-0.016,-0.016667,-0.017,-0.017,-0.017667,-0.018,-0.018,-0.018667,-0.019,-0.019,-0.018,-0.017333,-0.017,-0.017,-0.018167,-0.019,-0.019667,-0.020167,-0.021,-0.021,-0.021333,-0.022,-0.022,-0.022,-0.022,-0.023,-0.024333,-0.026,-0.028,-0.029667,-0.032,-0.033333,-0.034667,-0.036,-0.037333,-0.038667,-0.04,-0.04,-0.0405,-0.0412,-0.042,-0.042667,-0.044,-0.044667,-0.045833,-0.047,-0.047667,-0.049,-0.051,-0.052333,-0.053667,-0.055,-0.056333,-0.057333,-0.058,-0.058,-0.058,-0.058,-0.058667,-0.059667,-0.061,-0.062333,-0.064333,-0.067,-0.067667,-0.0685,-0.068667,-0.068,-0.067333,-0.0668,-0.066667,-0.067,-0.067,-0.067667,-0.068333,-0.069,-0.07,-0.070667,-0.072,-0.073333,-0.0745,-0.075667,-0.077,-0.077667,-0.0788,-0.079333,-0.080167,-0.08,-0.079333,-0.079667,-0.081,-0.081667,-0.082,-0.082,-0.083,-0.083333,-0.084,-0.084333,-0.083667,-0.083,-0.081667,-0.080667,-0.08,-0.08,-0.08,-0.08,-0.080667,-0.081,-0.081,-0.081,-0.080333,-0.079,-0.078333,-0.076667,-0.074,-0.068667,-0.066,-0.066,-0.065333,-0.063833,-0.061,-0.058,-0.054667,-0.051333,-0.048,-0.043667,-0.044,-0.043333,-0.042667,-0.042,-0.04,-0.039667,-0.039,-0.040333,-0.041333,-0.043,-0.043,-0.043667,-0.044333,-0.045,-0.044333,-0.044,-0.042,-0.039667,-0.037,-0.033667,-0.030667,-0.028,-0.024,-0.019,-0.0128,-0.0073333,-0.003,0.001
-0.018,-0.022,-0.025,-0.027,-0.027,-0.027333,-0.028,-0.0295,-0.030667,-0.031,-0.031167,-0.031667,-0.0318,-0.032333,-0.033,-0.033667,-0.0335,-0.033,-0.032,-0.031333,-0.030667,-0.03,-0.03,-0.029667,-0.029,-0.028333,-0.027667,-0.027,-0.028333,-0.03,-0.032,-0.033333,-0.034,-0.034,-0.032667,-0.031667,-0.031,-0.029,-0.027333,-0.026,-0.026,-0.026333,-0.027,-0.026333,-0.025333,-0.024,-0.023333,-0.023,-0.022,-0.023333,-0.026,-0.029,-0.031,-0.031333,-0.031,-0.030333,-0.029333,-0.028,-0.027333,-0.027,-0.027,-0.027667,-0.028,-0.028,-0.028,-0.028333,-0.029,-0.028167,-0.027,-0.025,-0.022333,-0.019667,-0.017,-0.014333,-0.012,-0.009,-0.0076667,-0.006,-0.004,-0.002,0.00033333,0.003,0.0063333,0.0096667,0.013,0.015667,0.018,0.02,0.0225,0.025333,0.029,0.033167,0.036333,0.04,0.044,0.048667,0.054,0.060667,0.071333,0.086,0.11,0.12967,0.156,0.1905,0.217,0.237,0.25383,0.26933,0.283,0.29233,0.3,0.306,0.31133,0.317,0.323,0.331,0.33933,0.348,0.35833,0.36867,0.378,0.3885,0.399,0.41,0.41883,0.42467,0.428,0.42667,0.424,0.42,0.41467,0.40833,0.401,0.391,0.38067,0.37,0.35833,0.349,0.341,0.34033,0.33867,0.336,0.34067,0.34267,0.343,0.34167,0.32833,0.3,0.27967,0.29467,0.317,0.326,0.32733,0.326,0.32533,0.32267,0.318,0.314,0.31133,0.303,0.29467,0.28167,0.271,0.25467,0.237,0.225,0.21033,0.19667,0.171,0.16167,0.15733,0.147,0.13567,0.127,0.119,0.108,0.090333,0.079,0.093,0.096667,0.096,0.078667,0.063667,0.042,0.04,0.036333,0.029,0.023333,0.018333,0.017,0.017,0.017,0.016,0.013167,0.010667,0.008,0.006,0.0043333,0.003,0.0036667,0.0043333,0.004,0.0041667,0.0036667,0.003,0.0033333,0.002,8.8818e-17,-0.002,-0.0033333,-0.004,-0.0053333,-0.0066667,-0.008,-0.0086667,-0.0096667,-0.011,-0.011833,-0.012667,-0.013,-0.013667,-0.014667,-0.016,-0.015833,-0.016,-0.0168,-0.0175,-0.017667,-0.018,-0.018333,-0.018,-0.0176,-0.018,-0.018333,-0.018,-0.017333,-0.017333,-0.018,-0.018,-0.018333,-0.019,-0.020333,-0.021,-0.022,-0.021833,-0.022,-0.022,-0.0215,-0.022,-0.022,-0.023333,-0.025,-0.027,-0.029,-0.030667,-0.033,-0.034167,-0.036,-0.038,-0.039,-0.04,-0.041,-0.041,-0.041333,-0.042,-0.0425,-0.044,-0.045,-0.045667,-0.047,-0.047,-0.0485,-0.049667,-0.051,-0.052667,-0.054333,-0.055,-0.056667,-0.057333,-0.058,-0.058,-0.058,-0.058,-0.058667,-0.059667,-0.061,-0.063333,-0.065,-0.067,-0.067667,-0.068,-0.068,-0.067333,-0.066667,-0.066,-0.066,-0.067,-0.067,-0.067167,-0.067333,-0.068,-0.068,-0.069333,-0.07,-0.072167,-0.073333,-0.074,-0.074667,-0.076,-0.078,-0.078667,-0.079333,-0.08,-0.080333,-0.080333,-0.08,-0.081333,-0.082,-0.083,-0.083667,-0.084333,-0.085,-0.084,-0.083,-0.082,-0.081333,-0.080667,-0.08,-0.08,-0.08,-0.081,-0.0815,-0.081667,-0.081,-0.0805,-0.079667,-0.0786,-0.077,-0.074,-0.07,-0.067167,-0.068,-0.0676,-0.0655,-0.063,-0.06,-0.056,-0.052667,-0.05,-0.047333,-0.046,-0.046,-0.044167,-0.043333,-0.042,-0.042,-0.041667,-0.041,-0.041,-0.041667,-0.043,-0.043,-0.043333,-0.044,-0.043333,-0.042667,-0.042,-0.039167,-0.036333,-0.033,-0.029667,-0.026,-0.022,-0.015833,-0.0093333,-0.002,0.0035,0.0076667
-0.018,-0.0215,-0.024667,-0.025833,-0.0265,-0.026833,-0.028,-0.03,-0.031333,-0.031667,-0.032,-0.032,-0.032,-0.032667,-0.033333,-0.034,-0.034,-0.033167,-0.032,-0.031,-0.029833,-0.029333,-0.0305,-0.0305,-0.030333,-0.029,-0.028333,-0.027667,-0.028,-0.0295,-0.031333,-0.0322,-0.0335,-0.033333,-0.0325,-0.031667,-0.030333,-0.028,-0.026833,-0.026,-0.0265,-0.027167,-0.027667,-0.0275,-0.025333,-0.024833,-0.024,-0.023667,-0.024,-0.0255,-0.028167,-0.031,-0.0325,-0.032667,-0.031667,-0.0305,-0.029333,-0.028667,-0.0278,-0.027,-0.027,-0.0275,-0.028167,-0.028667,-0.029,-0.029167,-0.029667,-0.029,-0.0275,-0.025667,-0.0235,-0.020667,-0.017833,-0.015,-0.012333,-0.0098333,-0.0075,-0.006,-0.004,-0.0025,-0.00033333,0.0016667,0.0045,0.0078333,0.011,0.0136,0.0155,0.017333,0.02,0.0225,0.026333,0.0296,0.0325,0.035333,0.0386,0.0425,0.048,0.055,0.064,0.086167,0.107,0.126,0.15617,0.187,0.214,0.23567,0.255,0.272,0.287,0.2975,0.30517,0.31133,0.3172,0.3225,0.32767,0.335,0.343,0.352,0.3616,0.3715,0.38133,0.3905,0.401,0.41,0.417,0.422,0.42333,0.421,0.418,0.41333,0.4075,0.39933,0.389,0.381,0.37067,0.36067,0.3515,0.34433,0.34167,0.339,0.33467,0.33833,0.3425,0.34267,0.34333,0.338,0.32367,0.296,0.279,0.29633,0.3145,0.32517,0.3245,0.32133,0.3218,0.3205,0.318,0.313,0.30433,0.297,0.2865,0.26933,0.24767,0.235,0.21733,0.22033,0.218,0.20667,0.19367,0.1844,0.178,0.16233,0.1408,0.1255,0.11833,0.1112,0.093,0.086333,0.0868,0.0905,0.083333,0.0745,0.058833,0.048,0.043,0.037833,0.028333,0.023,0.018,0.017833,0.0175,0.017,0.015333,0.012,0.010333,0.010667,0.007,0.0053333,0.0043333,0.005,0.0053333,0.007,0.0055,0.0036667,0.003,0.003,0.0015,-0.00066667,-0.002,-0.003,-0.0046667,-0.0056,-0.007,-0.008,-0.0092,-0.01,-0.011167,-0.0125,-0.013167,-0.013667,-0.0145,-0.015167,-0.016,-0.016,-0.016167,-0.017,-0.0176,-0.018,-0.018,-0.0185,-0.018,-0.0175,-0.0184,-0.018333,-0.0185,-0.0185,-0.0185,-0.0185,-0.018,-0.018333,-0.019667,-0.0208,-0.0215,-0.022333,-0.0225,-0.022667,-0.0225,-0.022,-0.022333,-0.022667,-0.0235,-0.024833,-0.026333,-0.0274,-0.0295,-0.031667,-0.0334,-0.0355,-0.037167,-0.0386,-0.04,-0.041,-0.0414,-0.0415,-0.041833,-0.0425,-0.044,-0.044667,-0.0455,-0.046667,-0.047167,-0.048,-0.049333,-0.050333,-0.0525,-0.053833,-0.055,-0.056,-0.056667,-0.057333,-0.0575,-0.0575,-0.057333,-0.058,-0.058667,-0.0605,-0.0625,-0.064167,-0.065667,-0.067,-0.0675,-0.067667,-0.068,-0.067333,-0.066667,-0.0665,-0.067333,-0.067,-0.0665,-0.066333,-0.066,-0.065,-0.0655,-0.066,-0.068,-0.0695,-0.07,-0.0715,-0.073,-0.075167,-0.0775,-0.078333,-0.079667,-0.0795,-0.079333,-0.08,-0.08,-0.081333,-0.0815,-0.0825,-0.083667,-0.084333,-0.0838,-0.083,-0.082667,-0.082,-0.0815,-0.080667,-0.0805,-0.080667,-0.081667,-0.0815,-0.082,-0.081667,-0.0815,-0.080667,-0.0795,-0.077,-0.074,-0.07,-0.069,-0.0695,-0.0695,-0.0674,-0.064333,-0.0605,-0.057167,-0.0535,-0.050667,-0.049,-0.047667,-0.046667,-0.0448,-0.0435,-0.044,-0.0435,-0.042333,-0.040167,-0.0395,-0.039667,-0.040667,-0.041,-0.041667,-0.042,-0.0426,-0.042,-0.040833,-0.0388,-0.036,-0.033,-0.0286,-0.0245,-0.02,-0.0124,-0.0055,0.002,0.0085,0.012667
-0.019,-0.021333,-0.024,-0.026,-0.026333,-0.027,-0.028333,-0.03,-0.032,-0.033,-0.031667,-0.032,-0.032,-0.032667,-0.034,-0.034,-0.034,-0.034,-0.032,-0.030333,-0.029,-0.029667,-0.030333,-0.031,-0.031,-0.030333,-0.029,-0.028333,-0.028,-0.028,-0.03,-0.0315,-0.0326,-0.033,-0.032667,-0.032,-0.03,-0.028333,-0.027,-0.027,-0.027333,-0.028,-0.028,-0.027333,-0.026,-0.025,-0.024833,-0.025,-0.026,-0.027167,-0.03,-0.032,-0.033333,-0.034,-0.032667,-0.031333,-0.03,-0.029333,-0.0285,-0.0274,-0.027,-0.027333,-0.028,-0.028667,-0.029,-0.029,-0.029,-0.028667,-0.028,-0.026,-0.024,-0.022,-0.019,-0.015833,-0.013,-0.01,-0.0083333,-0.006,-0.004,-0.0025,-0.001,2.6645e-17,0.0025,0.006,0.0086667,0.011,0.013,0.015,0.0175,0.0198,0.023,0.026,0.0288,0.031333,0.0345,0.0384,0.043333,0.050333,0.06,0.081,0.10683,0.124,0.151,0.1855,0.212,0.23467,0.2555,0.275,0.289,0.30033,0.309,0.31533,0.322,0.3274,0.33233,0.3395,0.3474,0.35633,0.3655,0.3748,0.38467,0.39367,0.403,0.40967,0.41533,0.418,0.41733,0.41533,0.412,0.406,0.39833,0.388,0.37667,0.367,0.359,0.35233,0.34367,0.339,0.341,0.336,0.328,0.329,0.33583,0.338,0.334,0.33133,0.315,0.289,0.27867,0.299,0.319,0.321,0.3204,0.31733,0.315,0.3158,0.31567,0.307,0.295,0.285,0.27483,0.253,0.234,0.21667,0.204,0.209,0.22367,0.223,0.20867,0.201,0.1914,0.17567,0.152,0.13,0.12,0.112,0.1026,0.092333,0.0885,0.081667,0.075,0.065167,0.053,0.047,0.04,0.032,0.027333,0.021333,0.018,0.018,0.019833,0.018,0.015333,0.012667,0.012,0.012,0.01,0.006,0.002,0.0036667,0.004,0.006,0.0055,0.003,0.001,0.0013333,0,-0.0013333,-0.0023333,-0.003,-0.0043333,-0.0055,-0.0068,-0.008,-0.009,-0.0096,-0.010667,-0.011667,-0.013,-0.014333,-0.015333,-0.016,-0.016,-0.016,-0.016,-0.016667,-0.017333,-0.018,-0.018,-0.018,-0.018,-0.018667,-0.019,-0.019,-0.019,-0.019,-0.0192,-0.019333,-0.019333,-0.02,-0.020667,-0.0215,-0.0224,-0.023333,-0.023333,-0.024,-0.024,-0.023167,-0.023,-0.023,-0.0235,-0.024,-0.025667,-0.0265,-0.0282,-0.030333,-0.032,-0.0342,-0.036333,-0.038,-0.0396,-0.040667,-0.0415,-0.0422,-0.042333,-0.043333,-0.044,-0.044,-0.044833,-0.046,-0.046,-0.047167,-0.049,-0.05,-0.051667,-0.053,-0.054333,-0.055667,-0.057,-0.057,-0.057,-0.057,-0.057,-0.0575,-0.058,-0.06,-0.061667,-0.063,-0.064333,-0.066,-0.067333,-0.068,-0.068333,-0.068,-0.068,-0.068,-0.068,-0.067,-0.066833,-0.066,-0.064333,-0.062,-0.0594,-0.059,-0.062,-0.0636,-0.064667,-0.068333,-0.071,-0.072,-0.075333,-0.077,-0.079,-0.078833,-0.078,-0.078,-0.08,-0.08,-0.081,-0.082,-0.083,-0.084,-0.084,-0.0834,-0.083,-0.082,-0.0822,-0.081667,-0.082,-0.082,-0.082,-0.082333,-0.083,-0.083,-0.082667,-0.082,-0.08,-0.077333,-0.074,-0.072,-0.071333,-0.072,-0.070667,-0.068833,-0.065,-0.062,-0.056667,-0.0532,-0.051333,-0.049,-0.049,-0.047,-0.0455,-0.0444,-0.044667,-0.044333,-0.041,-0.038,-0.036,-0.037,-0.038,-0.038667,-0.04,-0.040667,-0.0415,-0.0418,-0.041,-0.039,-0.036,-0.032667,-0.0285,-0.0236,-0.018667,-0.011,-0.0034,0.0043333,0.011333,0.016
-0.018,-0.0215,-0.024,-0.025,-0.026333,-0.027,-0.029,-0.030833,-0.032667,-0.033,-0.031667,-0.031333,-0.0324,-0.033667,-0.035,-0.036,-0.0355,-0.034667,-0.033,-0.03,-0.029,-0.029,-0.029667,-0.031,-0.0318,-0.0315,-0.029667,-0.028,-0.027167,-0.027333,-0.029,-0.030333,-0.031667,-0.033,-0.0325,-0.032,-0.03,-0.027833,-0.026,-0.026,-0.026667,-0.027333,-0.028,-0.027167,-0.026667,-0.026,-0.025333,-0.025667,-0.027,-0.029,-0.031333,-0.033,-0.034667,-0.034667,-0.034,-0.031833,-0.030667,-0.03,-0.0285,-0.027667,-0.027,-0.027667,-0.028,-0.029,-0.029,-0.029,-0.029,-0.0285,-0.027333,-0.026,-0.024,-0.022,-0.019,-0.016333,-0.013667,-0.011,-0.009,-0.0066667,-0.005,-0.003,-0.0016667,1.4803e-17,0.0013333,0.0033333,0.005,0.0081667,0.010333,0.013,0.014667,0.017,0.019,0.0225,0.025333,0.028,0.031667,0.035333,0.04,0.048,0.058667,0.079,0.105,0.124,0.15,0.184,0.21267,0.235,0.25517,0.273,0.288,0.29917,0.309,0.318,0.3245,0.331,0.337,0.34433,0.35233,0.361,0.36983,0.37867,0.388,0.39583,0.404,0.40933,0.4135,0.41533,0.413,0.40933,0.404,0.397,0.387,0.374,0.3656,0.357,0.35233,0.345,0.344,0.34233,0.339,0.336,0.32667,0.324,0.32667,0.32933,0.326,0.32067,0.31167,0.289,0.28233,0.30433,0.32,0.32,0.318,0.314,0.31483,0.313,0.311,0.297,0.28233,0.273,0.25967,0.24567,0.23,0.22767,0.214,0.216,0.22533,0.22367,0.216,0.2045,0.19567,0.187,0.16517,0.144,0.124,0.11333,0.10367,0.097,0.081333,0.071,0.061,0.054333,0.048333,0.041,0.037667,0.032,0.026,0.0285,0.028667,0.026,0.025333,0.019,0.016,0.013,0.013333,0.014,0.0091667,0.0053333,0.002,0.002,0.002,0.003,0.0023333,0.0013333,0,0,0,-0.001,-0.0016667,-0.003,-0.004,-0.0051667,-0.0066667,-0.008,-0.0086667,-0.0093333,-0.01,-0.012,-0.011667,-0.013,-0.014333,-0.015333,-0.016,-0.016,-0.016,-0.016,-0.016,-0.017333,-0.018,-0.018,-0.018667,-0.02,-0.019,-0.019,-0.019,-0.019,-0.019333,-0.02,-0.019833,-0.02,-0.021,-0.022333,-0.023333,-0.024,-0.023833,-0.024,-0.024,-0.024,-0.023667,-0.023,-0.023667,-0.024333,-0.025,-0.026167,-0.027667,-0.029,-0.030833,-0.033,-0.035,-0.037167,-0.038667,-0.04,-0.041333,-0.042333,-0.043,-0.043,-0.043333,-0.044,-0.044,-0.044667,-0.046,-0.046667,-0.048,-0.05,-0.051167,-0.052333,-0.054,-0.055167,-0.056333,-0.057,-0.057,-0.057,-0.057,-0.057667,-0.058,-0.059,-0.061167,-0.062333,-0.064,-0.065333,-0.066667,-0.068,-0.068667,-0.068667,-0.069,-0.069,-0.068667,-0.068,-0.067333,-0.065667,-0.063,-0.055333,-0.051667,-0.049,-0.049333,-0.053333,-0.058,-0.062333,-0.066333,-0.07,-0.073333,-0.075667,-0.077,-0.077,-0.078,-0.079,-0.079667,-0.080667,-0.081,-0.082333,-0.083333,-0.084,-0.084,-0.083667,-0.083,-0.082833,-0.083,-0.083,-0.082333,-0.082,-0.082,-0.0825,-0.083,-0.083,-0.083,-0.083,-0.079667,-0.0765,-0.074,-0.073,-0.072667,-0.073333,-0.073,-0.070333,-0.067,-0.063,-0.058333,-0.054667,-0.052,-0.051333,-0.049667,-0.048,-0.046333,-0.045333,-0.044,-0.040833,-0.037,-0.034,-0.032667,-0.031667,-0.033,-0.035,-0.036667,-0.039,-0.040333,-0.041,-0.041,-0.039,-0.036,-0.032,-0.028,-0.023333,-0.018,-0.011333,-0.003,0.005,0.011667,0.016667
-0.018,-0.0212,-0.024,-0.025333,-0.0265,-0.027,-0.029,-0.0305,-0.032,-0.031667,-0.031,-0.030667,-0.032,-0.034333,-0.036333,-0.037333,-0.037,-0.035333,-0.033,-0.0305,-0.028833,-0.028333,-0.0295,-0.030667,-0.032,-0.0308,-0.029333,-0.026667,-0.0265,-0.026667,-0.027667,-0.0295,-0.030667,-0.032333,-0.032,-0.0305,-0.028667,-0.027,-0.026167,-0.025333,-0.0255,-0.026333,-0.027333,-0.0274,-0.0275,-0.026833,-0.0265,-0.026333,-0.027,-0.029,-0.0315,-0.033667,-0.035,-0.035,-0.034,-0.032,-0.030333,-0.028667,-0.028,-0.027,-0.027667,-0.0285,-0.0285,-0.029,-0.029,-0.029,-0.029,-0.0285,-0.027,-0.026,-0.024,-0.022,-0.019333,-0.0165,-0.014,-0.011667,-0.01,-0.0073333,-0.0055,-0.004,-0.0026667,-0.002,-0.001,0.001,0.0035,0.0055,0.0075,0.0096667,0.0115,0.013667,0.015667,0.0192,0.0225,0.026,0.03,0.034,0.04,0.048,0.0585,0.083333,0.107,0.12433,0.15,0.1838,0.2125,0.23317,0.2515,0.26867,0.28267,0.296,0.30733,0.31767,0.32533,0.3335,0.341,0.3495,0.35767,0.36617,0.37483,0.3825,0.39067,0.3985,0.405,0.41,0.4104,0.411,0.407,0.4015,0.39433,0.38567,0.3755,0.362,0.354,0.3475,0.3495,0.34833,0.347,0.345,0.34233,0.3374,0.327,0.32567,0.3275,0.33033,0.33133,0.3198,0.3075,0.29017,0.289,0.31033,0.3185,0.3225,0.3215,0.31933,0.318,0.31,0.29767,0.2816,0.2665,0.26217,0.25283,0.2465,0.24133,0.2385,0.22233,0.224,0.22567,0.225,0.21683,0.21,0.20467,0.19567,0.18,0.15367,0.12983,0.11517,0.1005,0.087,0.0732,0.0565,0.051333,0.049333,0.0465,0.043667,0.0375,0.031667,0.035,0.035667,0.037,0.031333,0.027,0.020167,0.015333,0.014,0.015333,0.014,0.0084,0.004,0.002,0.0005,0.001,0.0016667,0.0005,-0.00033333,0.0005,0.0005,0.00033333,-0.00033333,-0.0015,-0.0026667,-0.0036667,-0.0046667,-0.0055,-0.0073333,-0.008,-0.008,-0.0095,-0.0105,-0.0105,-0.011,-0.0122,-0.0145,-0.015333,-0.016,-0.016,-0.0155,-0.016,-0.016667,-0.017167,-0.0175,-0.018,-0.018667,-0.018,-0.018333,-0.0185,-0.0185,-0.0185,-0.019167,-0.0195,-0.019333,-0.020333,-0.0224,-0.024,-0.024167,-0.024833,-0.025,-0.024667,-0.0245,-0.024333,-0.023667,-0.0244,-0.0245,-0.025,-0.025667,-0.0265,-0.028333,-0.0295,-0.0315,-0.033833,-0.0366,-0.0385,-0.04,-0.0414,-0.042,-0.042667,-0.043,-0.043,-0.043333,-0.044,-0.044,-0.044833,-0.046167,-0.0475,-0.048833,-0.0505,-0.051667,-0.053333,-0.0545,-0.055667,-0.0565,-0.0565,-0.056833,-0.057,-0.0574,-0.058,-0.059167,-0.0605,-0.062,-0.064,-0.0656,-0.067,-0.067833,-0.068833,-0.0695,-0.069667,-0.07,-0.069667,-0.068833,-0.067833,-0.0655,-0.057,-0.0455,-0.039333,-0.036333,-0.0365,-0.041333,-0.0485,-0.054167,-0.062,-0.067167,-0.0715,-0.074,-0.074833,-0.0765,-0.078,-0.079333,-0.0805,-0.081333,-0.082167,-0.083167,-0.084,-0.084,-0.084,-0.083333,-0.083667,-0.0834,-0.0835,-0.0835,-0.083167,-0.0825,-0.082667,-0.0824,-0.083,-0.0835,-0.0835,-0.0825,-0.08,-0.0766,-0.074333,-0.073833,-0.073833,-0.0745,-0.074333,-0.073,-0.069333,-0.065667,-0.061333,-0.056,-0.054333,-0.052,-0.05,-0.048,-0.0448,-0.043,-0.040167,-0.0365,-0.0325,-0.028667,-0.027,-0.026,-0.027167,-0.031,-0.034,-0.036667,-0.038667,-0.0405,-0.040167,-0.039,-0.035667,-0.032,-0.0284,-0.0245,-0.019333,-0.013,-0.005,0.003,0.01,0.0165
-0.018,-0.021,-0.023333,-0.026,-0.026833,-0.027,-0.029,-0.03,-0.03,-0.030333,-0.0295,-0.03,-0.032667,-0.035333,-0.038,-0.038667,-0.037833,-0.036,-0.032667,-0.031,-0.029,-0.028333,-0.028667,-0.03,-0.031,-0.03,-0.028,-0.026,-0.025333,-0.026,-0.026667,-0.028667,-0.03,-0.03,-0.029667,-0.029,-0.027,-0.025333,-0.024,-0.024333,-0.024333,-0.025,-0.026333,-0.0275,-0.028,-0.028,-0.026667,-0.027,-0.026667,-0.029,-0.031,-0.033,-0.034333,-0.035,-0.033667,-0.031667,-0.029,-0.027667,-0.027,-0.027,-0.027667,-0.028333,-0.029,-0.029,-0.029,-0.029,-0.029,-0.028333,-0.027,-0.025667,-0.024,-0.021667,-0.019,-0.0165,-0.014,-0.012,-0.01,-0.008,-0.006,-0.0048333,-0.004,-0.0033333,-0.0025,-0.001,0.001,0.003,0.0052,0.0073333,0.009,0.011,0.013,0.016,0.0202,0.024333,0.029,0.034,0.04,0.048667,0.062667,0.082,0.10833,0.125,0.151,0.185,0.21,0.23,0.24633,0.262,0.27667,0.29067,0.304,0.316,0.326,0.3352,0.34333,0.35333,0.363,0.372,0.37933,0.3858,0.393,0.39967,0.405,0.40767,0.40767,0.405,0.39867,0.39183,0.383,0.37367,0.36333,0.352,0.34567,0.343,0.3484,0.35133,0.34967,0.347,0.34567,0.342,0.33567,0.329,0.3345,0.341,0.34033,0.331,0.31333,0.296,0.3015,0.317,0.329,0.32767,0.32533,0.322,0.31067,0.295,0.27967,0.257,0.24567,0.241,0.24633,0.2472,0.24333,0.24117,0.229,0.225,0.22567,0.22533,0.224,0.21683,0.214,0.206,0.191,0.167,0.134,0.112,0.0952,0.080667,0.0675,0.058333,0.051,0.051667,0.0476,0.043333,0.038333,0.031,0.032,0.037333,0.038,0.032667,0.027333,0.021,0.015667,0.016667,0.018,0.014667,0.0085,0.0036667,0.001,0.0005,0.001,0.00033333,-0.0005,-0.001,0.001,0.001,0.001,0.00033333,-0.00083333,-0.002,-0.003,-0.0036667,-0.0048,-0.0066667,-0.0073333,-0.008,-0.009,-0.0096667,-0.0096,-0.0093333,-0.01,-0.0126,-0.014333,-0.015167,-0.015,-0.014333,-0.015333,-0.016,-0.017,-0.016333,-0.0168,-0.017333,-0.017,-0.017,-0.017,-0.017667,-0.018,-0.018,-0.018333,-0.018,-0.019667,-0.021,-0.023,-0.025,-0.025,-0.025,-0.025,-0.025,-0.025,-0.024333,-0.025,-0.025,-0.025,-0.025667,-0.026,-0.027333,-0.028667,-0.03,-0.032667,-0.0355,-0.0378,-0.039667,-0.041,-0.042333,-0.043,-0.043,-0.043,-0.043,-0.043333,-0.044,-0.044,-0.045333,-0.046667,-0.048,-0.049667,-0.051,-0.053,-0.054167,-0.055,-0.055667,-0.056,-0.056,-0.057,-0.0575,-0.058333,-0.059,-0.06,-0.062,-0.064,-0.0655,-0.067,-0.069,-0.069667,-0.0702,-0.070333,-0.071,-0.071,-0.07,-0.067333,-0.061667,-0.053,-0.039833,-0.03,-0.028,-0.026833,-0.03,-0.037,-0.047,-0.056333,-0.065,-0.07,-0.072,-0.073333,-0.0755,-0.078,-0.08,-0.0805,-0.082,-0.083,-0.083667,-0.084,-0.084,-0.084,-0.084,-0.084,-0.084,-0.084,-0.084,-0.084,-0.0836,-0.083333,-0.083,-0.0832,-0.084,-0.084,-0.083,-0.080667,-0.0775,-0.075,-0.075,-0.075,-0.0752,-0.075333,-0.074333,-0.072,-0.069,-0.063,-0.058333,-0.055,-0.051667,-0.05,-0.047333,-0.044,-0.039667,-0.035,-0.031,-0.0276,-0.024,-0.021833,-0.02,-0.022667,-0.0265,-0.031,-0.035,-0.037,-0.039,-0.039667,-0.037667,-0.035,-0.032333,-0.0285,-0.0252,-0.020667,-0.0145,-0.007,0.001,0.0076667,0.0138
-0.018,-0.020667,-0.023333,-0.026,-0.027333,-0.027667,-0.0286,-0.029,-0.029,-0.029,-0.029667,-0.030667,-0.0336,-0.036333,-0.039,-0.038333,-0.037,-0.034667,-0.032,-0.029167,-0.027,-0.026333,-0.027,-0.029,-0.029,-0.027667,-0.026667,-0.0256,-0.025,-0.025,-0.026,-0.027333,-0.028,-0.0272,-0.027,-0.027,-0.025667,-0.024667,-0.024,-0.023,-0.023167,-0.024,-0.025,-0.026333,-0.027333,-0.028,-0.026667,-0.026,-0.026,-0.028,-0.03,-0.032,-0.032667,-0.033,-0.0326,-0.031,-0.029,-0.027,-0.027,-0.027,-0.0274,-0.028333,-0.029,-0.029,-0.029,-0.029,-0.029,-0.0285,-0.027,-0.025,-0.023,-0.021,-0.019,-0.016333,-0.014,-0.012,-0.01,-0.0083333,-0.007,-0.0056667,-0.0046667,-0.004,-0.0033333,-0.002,-2.9532e-17,0.002,0.004,0.006,0.0076667,0.009,0.011,0.014333,0.018333,0.023,0.028333,0.034333,0.041,0.049667,0.063333,0.082,0.10733,0.127,0.153,0.18567,0.21133,0.23,0.24333,0.258,0.2712,0.285,0.29833,0.311,0.32233,0.33333,0.344,0.35467,0.366,0.376,0.38333,0.38967,0.395,0.39583,0.399,0.399,0.39733,0.394,0.388,0.37933,0.37033,0.3622,0.35467,0.348,0.339,0.34167,0.34667,0.354,0.3545,0.351,0.349,0.3455,0.34133,0.34,0.346,0.35033,0.353,0.33967,0.324,0.306,0.31467,0.32833,0.336,0.33067,0.32667,0.324,0.30733,0.285,0.257,0.237,0.225,0.221,0.23167,0.23667,0.236,0.2335,0.23067,0.228,0.22733,0.22667,0.226,0.22333,0.21733,0.2088,0.1955,0.16233,0.131,0.11367,0.096,0.078,0.071333,0.063333,0.054,0.052667,0.048,0.04,0.036333,0.033333,0.032,0.031333,0.030667,0.03,0.026333,0.021667,0.017,0.019,0.021,0.016,0.0093333,0.0043333,0.001,0.00033333,0.001,0.0006,-0.0005,-0.00033333,0.001,0.001,0.001,0.0002,-0.0005,-0.002,-0.003,-0.0036667,-0.0046667,-0.006,-0.0066667,-0.008,-0.009,-0.0083333,-0.008,-0.008,-0.01,-0.011667,-0.013,-0.013667,-0.013667,-0.013,-0.014333,-0.015,-0.015,-0.015667,-0.016,-0.016,-0.015333,-0.015333,-0.016,-0.016,-0.016667,-0.018,-0.017333,-0.017667,-0.019,-0.020333,-0.022,-0.024,-0.024667,-0.025,-0.025,-0.025833,-0.025667,-0.025,-0.025,-0.025,-0.025,-0.025667,-0.026,-0.026,-0.027833,-0.029,-0.031,-0.033667,-0.036333,-0.039,-0.040333,-0.041667,-0.043,-0.043,-0.043,-0.043,-0.043,-0.043333,-0.044,-0.044667,-0.045667,-0.047,-0.049,-0.050667,-0.052,-0.053333,-0.054333,-0.055,-0.055667,-0.056333,-0.057,-0.057667,-0.058333,-0.059,-0.060333,-0.062,-0.064,-0.066,-0.067667,-0.069,-0.069667,-0.070333,-0.071,-0.071667,-0.071667,-0.071,-0.068333,-0.061333,-0.05,-0.037333,-0.028667,-0.024,-0.020667,-0.021667,-0.027,-0.038333,-0.049667,-0.061,-0.066333,-0.07,-0.074,-0.076,-0.078,-0.08,-0.080667,-0.081333,-0.083,-0.083667,-0.084,-0.084,-0.084,-0.084,-0.084,-0.084667,-0.085,-0.085,-0.085,-0.084667,-0.084,-0.084,-0.084,-0.084,-0.084,-0.083333,-0.082,-0.079333,-0.077667,-0.077,-0.076333,-0.076,-0.076,-0.075333,-0.074,-0.071,-0.065,-0.06,-0.056,-0.052,-0.048667,-0.046,-0.042,-0.037,-0.031,-0.027,-0.023333,-0.02,-0.018,-0.017333,-0.018,-0.023333,-0.028333,-0.033,-0.035667,-0.037667,-0.039,-0.037667,-0.035,-0.033,-0.029667,-0.026,-0.022,-0.016,-0.0096667,-0.003,0.0043333,0.010333
-0.018,-0.0205,-0.023667,-0.026,-0.0275,-0.028333,-0.029,-0.029,-0.029333,-0.029667,-0.03,-0.031333,-0.034,-0.0365,-0.0375,-0.037,-0.0344,-0.032,-0.029667,-0.027,-0.024833,-0.024,-0.024833,-0.025833,-0.027,-0.0265,-0.025667,-0.0245,-0.024,-0.024,-0.024667,-0.025,-0.025667,-0.025,-0.024833,-0.024167,-0.0245,-0.024,-0.023333,-0.022333,-0.022,-0.023167,-0.024333,-0.0255,-0.026333,-0.0265,-0.026,-0.025,-0.025333,-0.026,-0.027667,-0.029167,-0.03,-0.031,-0.031,-0.029333,-0.028333,-0.027,-0.0265,-0.026667,-0.027,-0.028333,-0.029333,-0.03,-0.0295,-0.029167,-0.029,-0.0285,-0.027,-0.025,-0.0225,-0.020667,-0.018167,-0.0155,-0.013667,-0.0115,-0.0094,-0.0076667,-0.0071667,-0.007,-0.0063333,-0.0053333,-0.004,-0.003,-0.0013333,0.0005,0.0026667,0.0045,0.0065,0.0085,0.010333,0.013,0.017333,0.023167,0.0295,0.036,0.042,0.0495,0.060667,0.083667,0.109,0.128,0.15783,0.186,0.211,0.22783,0.2415,0.25467,0.2675,0.2798,0.292,0.303,0.3145,0.32467,0.33733,0.3515,0.364,0.37533,0.3825,0.38633,0.39,0.3905,0.38967,0.388,0.385,0.38033,0.37467,0.366,0.357,0.3495,0.34583,0.34717,0.34433,0.3485,0.35767,0.36267,0.3625,0.359,0.35567,0.35,0.34333,0.34467,0.3495,0.353,0.35433,0.348,0.32967,0.32433,0.323,0.33433,0.33267,0.329,0.326,0.31783,0.3018,0.277,0.24967,0.2292,0.2145,0.21917,0.2245,0.23433,0.236,0.237,0.24067,0.24133,0.237,0.235,0.23,0.224,0.21867,0.2085,0.1856,0.15733,0.13367,0.1115,0.090667,0.079833,0.0734,0.0625,0.056167,0.0485,0.044333,0.042333,0.039,0.034,0.027167,0.0255,0.0235,0.025333,0.024,0.019333,0.019,0.0205,0.019167,0.015333,0.009,0.0041667,0.001,0,0.00066667,0.0005,-0.0004,-0.00033333,0.00033333,0.0005,0.00066667,4.4409e-17,-0.0006,-0.0016667,-0.0028333,-0.0035,-0.004,-0.0051667,-0.006,-0.0073333,-0.007,-0.007,-0.007,-0.0086667,-0.0095,-0.011333,-0.011833,-0.0115,-0.011,-0.011,-0.013,-0.0135,-0.013667,-0.0145,-0.015667,-0.014833,-0.014,-0.014667,-0.0145,-0.015167,-0.0165,-0.017,-0.0172,-0.018,-0.019167,-0.0202,-0.0215,-0.022833,-0.024,-0.024667,-0.025667,-0.026,-0.026,-0.026,-0.026,-0.0255,-0.025667,-0.0255,-0.026,-0.026333,-0.0275,-0.029,-0.031,-0.0335,-0.036,-0.038333,-0.0405,-0.041667,-0.042333,-0.043,-0.043,-0.043,-0.043,-0.043,-0.043333,-0.0445,-0.045667,-0.046833,-0.0485,-0.05,-0.0515,-0.053,-0.053667,-0.054333,-0.055,-0.056,-0.056667,-0.057333,-0.058,-0.059167,-0.0608,-0.0625,-0.0645,-0.0662,-0.0685,-0.069667,-0.0705,-0.071,-0.071667,-0.0725,-0.072333,-0.070333,-0.067,-0.062,-0.05,-0.0396,-0.0315,-0.0245,-0.0195,-0.019333,-0.027,-0.0345,-0.048333,-0.057167,-0.0635,-0.068333,-0.0735,-0.0772,-0.079,-0.079333,-0.08,-0.081333,-0.083,-0.0845,-0.084333,-0.084,-0.0845,-0.084667,-0.085333,-0.0855,-0.0855,-0.085667,-0.0854,-0.0855,-0.084667,-0.0845,-0.0845,-0.084833,-0.085,-0.084333,-0.083,-0.081,-0.0795,-0.078167,-0.077,-0.076333,-0.076667,-0.0765,-0.075,-0.071333,-0.066333,-0.0615,-0.057333,-0.0526,-0.0485,-0.045333,-0.0398,-0.034,-0.029333,-0.0255,-0.022,-0.018833,-0.0165,-0.016,-0.018333,-0.0225,-0.028,-0.032,-0.0355,-0.037333,-0.037,-0.0365,-0.035833,-0.033667,-0.0315,-0.028667,-0.024667,-0.0195,-0.012833,-0.0063333,0.0005,0.0066667
